-0.041745 -0.004934 -0.014600 -0.959566 -0.281248 0.011549
0.031426 0.008875 0.055759 0.777652 0.586829 0.225584
0.044112 -0.017747 -0.067174 0.925753 -0.378086 -0.005639
0.021167 0.015163 0.037897 0.532124 0.844906 -0.054565
-0.015102 0.012609 0.078355 -0.711415 0.697217 -0.088186
-0.042423 -0.000009 0.049429 -0.888405 -0.132154 0.439626
-0.004107 0.009588 0.093898 -0.284920 0.939745 0.188943
0.021165 0.014528 0.014521 0.535587 0.844339 -0.015470
-0.010236 0.027290 0.022791 0.193505 0.980765 -0.025621
0.033535 0.006444 0.004801 0.597027 0.802025 0.017717
0.038750 0.001842 0.031258 0.675346 0.737422 -0.010753
-0.016348 -0.026059 -0.072291 -0.522487 -0.848742 -0.081517
0.045228 -0.006535 -0.043196 0.966963 0.154892 0.202464
0.018844 0.015786 0.011637 0.499684 0.866202 -0.003316
-0.014750 -0.027269 -0.074819 -0.576955 -0.816757 0.005544
0.029363 -0.032393 0.044540 0.340062 -0.915372 0.215528
0.036166 -0.021219 0.049682 0.757905 -0.403436 0.512659
-0.048344 0.001362 -0.046531 -0.969876 -0.206705 0.128895
-0.016734 -0.019872 0.069031 -0.510946 -0.581467 0.633112
0.023502 -0.025628 0.059477 0.494369 -0.464293 0.734868
0.015673 0.018336 -0.041977 0.456976 0.885902 0.079692
-0.042060 -0.007924 -0.063234 -0.764340 -0.644553 -0.018343
0.023466 0.014040 -0.046822 0.570962 0.816599 0.084664
-0.017798 0.028834 -0.004520 0.175003 0.984371 0.019714
-0.017792 -0.011781 0.075463 -0.819234 -0.479264 -0.314900
0.001925 -0.021301 0.075448 0.118161 -0.970059 -0.212188
0.012272 -0.034892 -0.068986 0.057429 -0.997910 -0.029633
0.037359 0.005165 -0.063025 0.694137 0.717929 0.052461
0.002687 -0.021567 0.084535 0.159764 -0.980890 0.111044
0.035277 -0.032181 0.021124 0.482827 -0.873394 -0.063730
-0.012038 -0.024768 -0.023544 -0.432468 -0.901438 0.019533
0.021625 0.014146 0.002214 0.531603 0.846708 0.021991
0.004323 0.017600 0.086254 0.182620 0.705476 0.684802
-0.032865 -0.011602 0.040006 -0.568185 -0.822225 -0.033362
0.017669 0.004844 0.086477 0.578650 0.257149 0.773976
0.045611 -0.009158 0.035985 0.981405 0.034390 0.188843
0.032807 -0.023710 -0.010441 0.850795 -0.521835 -0.061933
0.024895 0.006753 -0.083620 0.079556 0.089419 -0.992812
-0.015511 -0.025448 -0.081357 -0.323722 -0.682455 -0.655331
-0.023875 -0.017390 0.036895 -0.538309 -0.842215 -0.029949
0.009334 0.007873 -0.082361 -0.075616 -0.097162 -0.992392
0.044213 -0.004134 0.014299 0.899701 0.429229 -0.079379
0.043637 -0.018785 0.017981 0.921027 -0.363521 -0.139865
0.007441 -0.034274 -0.072313 -0.343649 -0.939083 0.005266
-0.002002 0.025717 0.040166 0.267494 0.962161 -0.051898
0.023856 -0.032787 0.025970 -0.121248 -0.992227 0.028007
-0.022952 0.028968 0.012279 0.087510 0.995477 0.036971
0.045182 -0.015260 0.020212 0.944991 -0.311083 -0.101088
-0.012738 -0.000053 0.090349 -0.959841 0.115662 0.255592
0.036264 -0.027867 0.009372 0.780243 -0.515445 -0.354312
-0.004537 0.019082 0.072522 -0.143907 0.677228 0.721563
0.012058 -0.031133 0.037587 -0.158644 -0.986630 -0.037325
-0.017792 -0.020559 0.067553 -0.523816 -0.580148 0.623734
-0.008807 -0.006822 0.102124 -0.808374 -0.555014 0.196192
-0.005508 0.004817 0.107268 -0.293000 0.349989 0.889752
0.042873 -0.007965 0.045232 0.911095 -0.104502 0.398729
0.022308 0.013832 0.015594 0.519719 0.854305 -0.007494
0.046657 -0.006119 -0.060756 0.904349 0.426418 -0.017892
-0.027222 0.005835 -0.080391 0.018921 0.045336 -0.998793
0.021684 0.014446 0.028754 0.531702 0.846742 -0.017914
0.012006 0.019243 -0.009366 0.443045 0.896498 -0.001510
-0.012305 -0.002766 0.092756 -0.975068 -0.125328 0.183127
0.003260 -0.029531 0.036951 -0.210747 -0.977161 -0.027261
0.035884 0.004402 0.015779 0.626162 0.779550 0.014913
0.004756 -0.025811 0.068585 0.169738 -0.747278 0.642468
-0.043635 -0.000754 -0.082106 -0.462514 -0.195495 -0.864790
-0.022682 -0.018851 0.064466 -0.616415 -0.513123 0.597275
0.038319 0.002934 -0.003835 0.783559 0.621036 -0.018684
0.040459 -0.003059 -0.004257 0.989885 0.009344 -0.141561
0.040467 0.000191 0.026519 0.696327 0.717720 0.002547
0.041338 -0.000418 0.006908 0.830615 0.553785 -0.058320
0.012519 -0.006696 0.087311 0.273752 -0.133575 0.952480
-0.021226 -0.024378 -0.068498 -0.430162 -0.902629 0.014883
-0.038673 0.015894 -0.080986 -0.261501 0.078891 -0.961974
0.026866 -0.031881 -0.008609 0.634791 -0.769188 -0.073419
0.010407 -0.003334 0.095246 0.974904 -0.145325 0.168647
0.001909 0.024473 -0.044322 0.316284 0.945804 0.073622
-0.020297 -0.021066 -0.038066 -0.500397 -0.864934 0.038627
-0.045429 -0.002379 -0.073922 -0.707627 -0.706475 -0.012522
-0.003655 -0.027622 -0.082954 -0.132698 -0.293525 -0.946697
0.015955 0.010260 0.084494 0.819115 0.562692 0.111483
0.000954 -0.008191 -0.080828 0.056228 0.112221 -0.992091
-0.044369 -0.000678 0.003513 -0.972546 -0.129659 -0.193243
0.011306 -0.004680 0.089184 0.882034 -0.271269 0.385265
0.041196 -0.016006 0.007310 0.868581 -0.305902 -0.389860
-0.006944 0.026615 0.025595 0.230040 0.973177 0.002810
0.031449 0.009890 -0.059772 0.621986 0.772179 0.129894
0.006097 -0.034210 -0.068090 -0.207795 -0.973175 -0.098747
-0.012107 -0.018307 0.078284 -0.573895 -0.818652 -0.021288
-0.045914 0.012750 -0.076488 -0.865632 0.373264 -0.333700
0.021449 0.014408 -0.026945 0.539644 0.841422 0.028168
-0.019633 -0.021365 0.054868 -0.491491 -0.869572 -0.047758
0.027488 0.010492 -0.007537 0.536925 0.843614 0.005214
-0.011894 -0.028074 -0.061333 -0.400908 -0.910410 0.102110
0.045230 -0.015145 -0.058213 0.926595 -0.375618 0.018241
0.002604 -0.008453 0.107240 0.244137 -0.454182 0.856806
-0.033975 0.024079 0.048951 -0.675348 0.549763 0.491595
0.039568 -0.001573 -0.016014 0.993482 0.110582 0.027643
-0.044142 -0.003818 -0.076830 -0.780297 -0.624741 -0.028911
-0.045849 0.000482 0.009479 -0.954283 -0.232906 -0.187347
0.023695 0.013001 0.015736 0.525214 0.850958 0.004438
0.039797 -0.001207 -0.081987 0.498229 0.380572 -0.779059
0.018491 0.019739 -0.065266 0.483753 0.867525 0.115689
-0.044410 0.013297 -0.078561 -0.680268 0.347377 -0.645418
0.020218 0.015070 0.012773 0.522206 0.852031 -0.036650
-0.025323 -0.017029 -0.003104 -0.499380 -0.866230 0.016316
-0.040663 0.010080 -0.026496 -0.914989 0.340641 0.216236
-0.004685 -0.027673 -0.008516 -0.338135 -0.941058 0.008606
0.007141 -0.031408 -0.032480 -0.209305 -0.977727 0.015528
-0.032741 -0.014248 -0.051965 -0.580869 -0.803787 0.128519
0.032361 -0.030906 0.044326 0.513718 -0.796306 0.319361
-0.026108 -0.018661 0.060580 -0.700035 -0.567743 0.433151
-0.030486 0.014358 0.059484 -0.596144 0.336722 0.728855
-0.006785 0.000838 -0.080573 -0.029637 -0.056584 -0.997958
-0.047077 0.008296 0.035480 -0.959035 0.197868 0.202732
-0.015131 0.028200 0.038366 0.109357 0.993433 -0.033649
0.002020 -0.032964 -0.070711 -0.082718 -0.993484 -0.078400
0.015934 -0.033218 -0.039588 -0.184748 -0.982733 0.010195
-0.003208 0.025399 -0.022687 0.278894 0.959974 0.025850
-0.040448 0.026318 -0.064377 -0.846056 0.533091 0.001848
-0.009989 0.015809 0.086406 -0.342263 0.654165 0.674481
-0.028639 0.028052 0.048870 -0.363500 0.868521 0.336955
0.019971 0.015468 0.028012 0.510165 0.859266 -0.037325
0.039982 0.001067 -0.079834 0.788784 0.526810 -0.316688
0.006894 -0.034034 -0.078437 -0.304867 -0.942151 -0.139309
-0.025965 -0.021061 -0.069631 -0.632852 -0.766809 -0.107250
0.033981 0.006585 -0.013395 0.543867 0.839148 0.006275
-0.005155 0.017328 0.073694 -0.279384 0.895804 0.345657
0.017206 0.016648 -0.016388 0.473347 0.880866 0.004233
-0.015319 -0.022652 0.014270 -0.486904 -0.873417 0.008138
-0.031989 0.026268 0.048773 -0.560444 0.707427 0.430638
0.017041 0.017130 0.019253 0.496552 0.864145 0.081789
0.010255 0.008493 0.087105 0.176344 0.156778 0.971763
0.027864 0.010039 0.008312 0.575450 0.817562 0.021224
0.038751 -0.000094 -0.082086 0.463940 0.385187 -0.797741
-0.034658 0.029989 -0.059015 -0.177981 0.984000 0.008151
-0.011355 -0.025657 -0.038768 -0.413550 -0.908615 0.058273
-0.040878 0.016685 0.045115 -0.817367 0.408308 0.406443
0.017045 0.016669 -0.018881 0.476688 0.878591 0.029084
-0.014288 -0.016443 0.081717 -0.732888 -0.678877 -0.044731
-0.019257 -0.024786 -0.063123 -0.460245 -0.880946 0.110043
0.022497 -0.000508 0.070124 0.765768 0.024226 0.642661
0.010434 0.015475 0.085291 0.514407 0.804373 0.297271
0.006864 -0.030651 0.044893 -0.188195 -0.979938 -0.065611
0.011015 -0.034319 -0.060044 -0.139747 -0.981232 0.132873
0.005218 0.022461 0.000194 0.389426 0.921056 0.002074
-0.024349 0.029254 0.047730 -0.078119 0.994183 0.074151
-0.037067 0.027881 0.028280 -0.412893 0.910479 0.023406
-0.021024 0.018319 0.063974 -0.490554 0.468494 0.734759
0.007628 -0.029298 -0.083464 -0.002261 -0.225067 -0.974341
-0.033216 0.028912 0.017803 -0.185878 0.982309 -0.022762
0.028321 -0.001216 0.063629 0.677703 0.006137 0.735310
0.039022 0.002204 -0.040824 0.617725 0.786098 -0.021574
-0.041834 -0.006992 -0.048645 -0.647550 -0.761223 0.034906
0.026858 0.010805 0.009617 0.590244 0.806968 0.020394
0.001991 0.023630 -0.082402 0.166671 0.417046 -0.893473
-0.032301 0.023081 -0.021037 -0.798202 0.586357 0.138054
-0.018572 0.005079 0.073939 -0.926677 0.368649 0.073267
0.002574 0.024648 -0.081581 0.222757 0.636115 -0.738740
0.037490 -0.017612 0.050364 0.783789 -0.335982 0.522294
0.010095 -0.031783 0.052196 -0.178302 -0.976149 -0.123860
0.018255 0.016106 -0.082566 0.189596 0.361582 -0.912859
-0.044808 0.017373 -0.058845 -0.910935 0.411887 0.023387
0.018557 -0.027304 0.061368 0.384855 -0.556695 0.736191
0.017828 -0.006828 0.086680 0.509406 -0.152206 0.846959
0.032826 -0.028145 0.048225 0.688642 -0.549609 0.472972
-0.001170 -0.020220 0.087219 0.054529 -0.340496 0.938663
-0.037081 0.014522 -0.012908 -0.883565 0.468128 -0.012960
-0.015869 -0.013577 0.074491 -0.757340 -0.650299 -0.059558
0.025779 0.013658 0.055727 0.447354 0.823159 -0.349691
0.022341 -0.033988 -0.006536 0.147717 -0.988873 -0.017604
0.036597 0.004004 0.010556 0.625266 0.779907 0.028047
0.016806 -0.010548 0.086292 0.641457 -0.330852 0.692149
-0.010263 0.027317 0.025924 0.186480 0.982457 -0.001854
0.026033 0.011419 -0.003154 0.540182 0.841536 -0.004555
0.037758 -0.029110 0.015821 0.776288 -0.594802 -0.208776
-0.011036 -0.024851 0.012428 -0.428621 -0.903439 0.009037
-0.014233 -0.026232 -0.055640 -0.418088 -0.896479 0.146721
-0.026856 0.029574 -0.032667 -0.125678 0.988500 0.084094
-0.028306 0.029038 0.017037 0.028235 0.999092 0.031918
0.038454 0.002997 -0.027814 0.732509 0.680375 0.022832
-0.005147 -0.021664 0.073268 -0.146860 -0.638951 0.755099
-0.001551 0.026852 0.057979 0.316207 0.836437 -0.447646
-0.020435 -0.020716 -0.032836 -0.496996 -0.866675 0.043249
0.018442 0.017271 0.045279 0.502948 0.860839 -0.077460
0.029224 0.008734 0.060021 0.723987 0.455800 0.517774
0.031223 -0.030335 0.047387 0.571145 -0.726435 0.382212
-0.047613 0.009614 0.022171 -0.961147 0.268402 -0.064468
-0.035526 0.027543 0.038801 -0.475866 0.862851 0.170410
-0.037534 0.020768 -0.033403 -0.809814 0.482246 0.334126
-0.035364 0.020449 0.050560 -0.709249 0.466171 0.528820
0.015983 0.021139 -0.065793 0.458376 0.882349 0.106542
0.019666 0.015798 0.033199 0.510908 0.858525 -0.043678
0.022109 0.014542 0.037983 0.551450 0.832357 -0.055542
0.029518 0.008973 0.010345 0.468820 0.883267 0.006929
0.017606 -0.035474 -0.064528 -0.064250 -0.997545 -0.027846
-0.041590 0.004225 -0.021406 -0.959463 0.246092 0.137365
0.035296 -0.000174 -0.083259 0.165711 0.127365 -0.977915
0.039691 -0.027875 0.024908 0.866916 -0.498336 -0.010884
0.008955 0.021701 -0.043220 0.394726 0.915953 0.072267
0.008188 -0.032734 -0.051415 -0.158230 -0.981012 0.112156
-0.014993 0.029247 -0.053186 0.134583 0.985543 0.102915
-0.041310 -0.006307 -0.008392 -0.896994 -0.440520 -0.036652
0.029140 -0.029488 0.051317 0.561774 -0.654362 0.506182
-0.043573 0.018327 0.017250 -0.879249 0.441393 -0.179146
-0.026539 0.030206 -0.066155 -0.215062 0.975051 -0.054987
0.020672 -0.032564 0.040834 -0.132189 -0.989824 -0.052673
0.013585 0.019151 0.028786 0.484161 0.874930 -0.009258
0.008087 -0.033539 -0.057789 -0.163219 -0.977735 0.131885
-0.003191 0.009401 0.096270 -0.239303 0.953820 0.181553
0.038159 0.002441 0.017271 0.660197 0.750703 0.024177
-0.032700 0.029393 -0.042043 -0.289796 0.947403 0.135812
-0.009997 0.027307 0.012342 0.216102 0.976285 -0.012942
-0.038957 0.027329 -0.050543 -0.752621 0.641120 0.150087
0.040390 0.000663 0.004914 0.780311 0.624003 -0.041651
0.042344 -0.022159 0.024218 0.909493 -0.415604 0.009750
0.011846 -0.023779 0.067750 0.377358 -0.649711 0.659906
0.020089 -0.034063 -0.081061 -0.027546 -0.761876 -0.647137
-0.008930 -0.003752 0.106665 -0.761260 -0.238160 0.603128
-0.043595 -0.003277 0.025985 -0.701119 -0.712603 0.025081
-0.047670 0.009125 0.030003 -0.965855 0.244863 0.084650
0.011681 0.010463 0.087034 0.083262 0.069493 0.994102
-0.008771 0.016532 0.074766 -0.377806 0.862964 -0.335492
0.040164 -0.008237 0.050200 0.835092 -0.136856 0.532815
-0.004495 0.017303 -0.083353 -0.018184 -0.214175 -0.976626
-0.019629 -0.020208 0.006811 -0.509406 -0.860444 0.011902
0.024991 0.015065 -0.061556 0.569876 0.810675 0.134340
0.026195 0.011350 0.024845 0.553194 0.832562 -0.028587
0.044889 -0.008322 -0.079615 0.833799 -0.094054 -0.543998
0.018070 0.016221 0.000850 0.475671 0.879082 -0.030845
-0.039260 0.009802 -0.014641 -0.932602 0.359681 0.029717
-0.018186 0.002413 0.087299 -0.190810 0.072946 0.978913
0.034465 0.003848 0.056517 0.779443 0.413954 0.470224
0.027926 0.010367 -0.037567 0.580613 0.814050 0.014504
0.043605 -0.005413 0.042456 0.941034 0.234917 0.243453
-0.043255 -0.006312 -0.063477 -0.815402 -0.563280 -0.133545
0.034639 -0.024776 -0.029835 0.840509 -0.474473 0.261574
-0.010911 0.027912 0.043579 0.150317 0.987403 -0.049407
-0.025453 0.029395 0.002364 -0.092077 0.995347 -0.028392
0.009832 -0.030684 0.034097 -0.161687 -0.986744 -0.013928
-0.022610 0.025343 0.058276 -0.403039 0.644057 0.650192
0.019434 0.015370 -0.006647 0.482478 0.875293 -0.032829
0.021387 0.014354 -0.000190 0.505225 0.862918 -0.010933
0.023466 0.014040 -0.046822 0.570962 0.816599 0.084664
0.036396 -0.030976 0.017099 0.653377 -0.741747 -0.151364
-0.045003 0.003107 0.006161 -0.935643 0.136114 -0.325646
0.017678 0.016931 0.029336 0.491169 0.870997 -0.010845
0.007821 0.021333 -0.026205 0.396276 0.917834 0.023376
0.022454 0.013871 -0.028553 0.512118 0.858592 0.023552
-0.043158 0.008377 0.046401 -0.867647 0.218737 0.446478
-0.010017 -0.025267 0.031350 -0.402489 -0.915423 -0.001759
0.030530 0.008793 0.037715 0.583705 0.810978 -0.040041
-0.015910 -0.022324 0.011988 -0.492042 -0.870508 0.010533
-0.049500 0.005725 -0.063681 -0.978083 0.204657 -0.038335
-0.006131 -0.029448 0.063834 -0.194838 -0.854364 0.481768
0.001254 0.010318 0.092236 0.148211 0.968641 0.199421
0.005567 0.017904 0.072899 0.206862 0.649827 0.731391
0.018103 0.016267 0.003961 0.462110 0.886821 -0.001650
0.004634 0.017895 0.076295 0.254920 0.960932 -0.107822
0.044170 -0.018260 0.029854 0.920163 -0.391125 0.017913
0.020651 0.014929 -0.028832 0.485131 0.874076 0.025287
0.020322 0.015162 -0.030608 0.504769 0.862964 0.022384
-0.013364 0.028202 0.043144 0.116017 0.992192 -0.045775
-0.002598 0.025363 0.015354 0.295248 0.955310 -0.014521
0.017677 -0.032523 0.014109 -0.157611 -0.985814 0.057700
0.000867 -0.029341 0.001507 -0.271826 -0.962266 0.012445
-0.029287 0.026126 -0.016473 -0.706090 0.707219 0.035753
-0.027781 -0.015576 -0.001786 -0.499076 -0.866312 0.020628
0.039739 -0.001384 -0.009382 0.986903 0.129987 -0.095530
-0.030721 -0.001704 -0.082420 0.241520 0.304857 -0.921266
0.012019 0.019411 0.000414 0.438992 0.898269 -0.019951
0.012103 0.018994 0.068719 0.404636 0.679769 0.611706
0.018959 0.016029 0.027919 0.511349 0.858786 -0.031764
-0.000522 -0.029237 -0.026374 -0.289912 -0.956401 0.035329
0.020012 0.018835 0.062185 0.615556 0.654677 0.438735
0.035558 -0.027617 0.007599 0.774508 -0.502587 -0.384114
0.008362 -0.001220 0.106200 0.857493 0.014895 0.514280
0.024766 0.009380 -0.083286 0.142388 0.184577 -0.972449
-0.028021 -0.019260 -0.070611 -0.531077 -0.842109 -0.093861
0.033949 0.006852 0.049733 0.662189 0.749056 -0.020518
0.017520 0.016736 -0.030874 0.475791 0.879014 0.030934
0.042521 -0.003908 -0.081246 0.615232 0.366405 -0.698023
-0.016549 -0.025971 -0.075310 -0.497034 -0.867345 0.025886
-0.028793 0.027048 -0.007195 -0.639100 0.763029 -0.096635
-0.000696 -0.029025 -0.011094 -0.292182 -0.956293 0.011550
-0.004852 0.018447 0.080151 -0.235985 0.969451 -0.066896
0.012571 -0.032613 -0.041263 -0.171431 -0.984407 0.039418
-0.035786 0.001033 0.058433 -0.703717 0.076133 0.706390
0.029244 -0.031660 -0.027555 0.671311 -0.713147 0.201899
0.012962 -0.034873 -0.062307 -0.114870 -0.985880 0.121845
-0.031759 0.029001 -0.079960 -0.125237 0.903918 -0.408960
-0.039701 -0.009962 -0.077582 -0.610456 -0.774992 -0.163494
-0.026499 0.022753 0.057682 -0.522864 0.498034 0.691792
-0.024178 0.029588 -0.040519 0.095571 0.995407 0.005501
0.000370 -0.029468 -0.015842 -0.274813 -0.961326 0.018169
-0.024986 0.029007 -0.007130 -0.269260 0.961697 -0.051366
-0.020026 0.028753 0.039733 0.081469 0.995803 -0.041711
0.043250 -0.002646 -0.069655 0.703431 0.710750 0.004370
-0.041215 0.004306 -0.008548 -0.964737 0.248370 -0.087145
-0.026883 0.028489 -0.022466 -0.403292 0.909785 0.098219
0.035082 -0.023121 -0.028188 0.858591 -0.458430 0.229486
-0.026338 -0.018843 -0.052346 -0.549536 -0.825311 0.129890
0.022247 -0.008506 0.069310 0.747875 -0.207275 0.630651
-0.019161 0.019175 -0.083176 -0.062246 -0.302394 -0.951148
-0.043113 -0.005426 -0.032016 -0.828400 -0.554206 0.081301
-0.041108 -0.004935 -0.081858 -0.499980 -0.400108 -0.768072
0.000045 -0.030160 -0.043173 -0.268980 -0.960627 0.069612
0.023952 0.012997 0.031637 0.558620 0.829271 -0.015913
-0.047930 -0.000756 -0.051915 -0.835693 -0.548533 0.027011
-0.018998 0.004483 0.086823 -0.508045 0.197865 0.838296
0.029086 0.009487 -0.007021 0.529422 0.848309 0.009194
0.000721 0.024182 -0.020787 0.346349 0.938018 0.012848
0.020532 -0.034060 -0.037269 -0.165266 -0.986110 -0.016564
0.016314 0.001002 -0.081988 -0.049230 -0.153256 -0.986959
-0.037061 0.010361 0.054816 -0.740734 0.247963 0.624362
0.015649 -0.033346 -0.012232 -0.239063 -0.970824 0.018698
-0.047508 0.001691 0.022159 -0.931186 -0.363865 -0.022267
-0.031605 -0.011856 0.059398 -0.730747 -0.483244 0.482167
-0.031370 0.027890 -0.032348 -0.525628 0.822530 0.217164
0.018994 0.016227 0.033633 0.504423 0.862186 -0.046833
0.017004 -0.010903 0.077302 0.886701 -0.457410 -0.067358
0.013343 0.020963 0.065649 0.412311 0.690897 0.593852
0.036224 -0.031157 -0.045048 0.797263 -0.565483 0.211188
0.026117 0.013034 0.053694 0.557016 0.823452 -0.107981
0.027229 0.005678 0.063748 0.676191 0.219536 0.703257
-0.027921 0.028972 0.034875 0.030575 0.999122 -0.028642
0.037187 -0.014293 -0.015662 0.950961 -0.308126 0.027051
0.013903 0.021571 -0.079133 0.452278 0.867563 -0.206832
0.020248 0.008456 0.070069 0.693936 0.326663 0.641673
0.010805 0.019856 -0.006030 0.436559 0.899536 -0.015844
0.015763 -0.012956 0.076069 0.814174 -0.549546 -0.187404
0.038781 -0.014498 0.050069 0.817234 -0.252727 0.517936
-0.021148 -0.019628 -0.011701 -0.502787 -0.864260 0.016116
-0.005880 -0.022602 -0.083507 0.004522 0.000146 -0.999990
0.008362 -0.001220 0.106200 0.857493 0.014895 0.514280
0.000370 -0.032702 -0.064032 -0.249161 -0.962536 0.106976
-0.024852 0.024935 0.057200 -0.462997 0.606532 0.646338
0.003480 0.024825 0.053957 0.336617 0.941038 -0.033711
0.021211 0.014596 -0.027940 0.515507 0.856753 0.015032
0.022180 0.014599 0.039477 0.539202 0.840963 -0.045188
0.004177 0.006102 0.106372 0.438083 0.679861 0.588109
0.020729 0.014750 0.001812 0.514933 0.857228 0.001963
-0.002357 0.018351 0.075086 -0.072881 0.972124 -0.222853
0.019049 0.015580 -0.009965 0.488731 0.872434 0.000711
-0.009416 0.027166 0.017505 0.197268 0.980308 0.009051
-0.016047 -0.022200 0.016897 -0.494425 -0.869167 0.009608
-0.039568 -0.009017 -0.022956 -0.660018 -0.751155 0.011911
0.027616 -0.033561 0.006081 0.240862 -0.966735 -0.086078
-0.020196 -0.019637 0.028695 -0.532901 -0.846178 0.000173
0.019037 -0.023597 -0.082648 0.040092 0.353876 -0.934433
-0.037065 -0.008854 0.023247 -0.592301 -0.805220 0.028301
0.013219 -0.032631 -0.034824 -0.200261 -0.979741 0.001450
-0.024545 -0.016939 0.024653 -0.531104 -0.847166 0.015429
-0.017459 -0.008926 0.087284 -0.225896 -0.005355 0.974137
0.000423 -0.029011 0.041173 -0.248440 -0.967765 -0.041330
0.040529 -0.008341 -0.027911 0.949659 -0.208232 0.234066
0.020171 0.019282 -0.075239 0.438627 0.898665 0.002634
-0.008776 -0.026267 0.046417 -0.374089 -0.925811 -0.054145
0.032217 0.001678 -0.083437 0.110674 0.105880 -0.988201
0.013176 0.013332 0.082286 0.708508 0.700490 -0.085614
-0.029222 0.029585 -0.068023 -0.143964 0.989569 -0.005314
-0.023387 -0.018250 -0.009049 -0.501520 -0.864908 0.020317
0.034106 0.006319 -0.026205 0.555598 0.831005 -0.027252
-0.030207 0.029844 -0.041331 -0.127207 0.988990 0.075612
-0.009997 0.027307 0.012342 0.216102 0.976285 -0.012942
-0.004754 -0.005195 -0.080809 0.066595 0.117543 -0.990832
-0.018934 0.018135 0.065581 -0.502460 0.523415 0.688165
0.028423 0.013242 -0.066153 0.604019 0.795917 0.040944
0.040005 -0.013042 0.002030 0.909215 -0.282345 -0.305955
-0.036103 -0.009652 0.020785 -0.578239 -0.815140 0.034441
0.025680 -0.032518 -0.011003 0.530791 -0.846997 -0.029273
-0.045920 0.013978 0.031540 -0.930084 0.359623 0.074931
0.029285 -0.026586 -0.082846 0.085811 0.087039 -0.992502
-0.049059 0.003263 -0.049460 -0.987990 -0.042484 0.148565
0.041865 -0.001120 -0.074140 0.783928 0.620775 -0.009780
0.001690 -0.030027 0.063710 0.055167 -0.821540 0.567476
0.018023 0.016481 0.023809 0.568890 0.769704 0.289690
0.016800 -0.033477 -0.031078 -0.209611 -0.977629 -0.017444
0.012809 0.019473 0.026305 0.458081 0.887989 -0.040467
0.022046 -0.035379 -0.078682 0.053152 -0.960015 -0.274858
-0.026499 0.022753 0.057682 -0.522864 0.498034 0.691792
0.025915 0.012048 0.039408 0.556997 0.828874 -0.052173
0.003726 0.006511 0.106158 0.429879 0.793886 0.430057
-0.000597 -0.028580 0.033861 -0.255616 -0.966772 -0.003424
-0.042649 0.010372 -0.080748 -0.347999 0.248274 -0.904022
0.034966 -0.031997 0.017280 0.527617 -0.841397 -0.116925
0.032742 0.006911 -0.038364 0.572191 0.820101 -0.005660
-0.041479 -0.005006 0.031928 -0.669643 -0.742374 0.021416
0.001589 -0.032886 -0.073509 -0.037191 -0.998921 0.027797
-0.014123 -0.008342 0.087191 -0.191513 -0.093162 0.977059
0.007555 0.004634 0.100946 0.811640 0.549345 0.198645
0.045448 -0.005842 0.028105 0.901931 0.431291 0.022573
0.041318 -0.023933 0.033416 0.882361 -0.455320 0.118837
-0.047560 0.010869 -0.059705 -0.927355 0.373784 0.017268
0.032532 -0.017566 0.056418 0.666752 -0.334595 0.665949
0.009661 -0.031901 -0.026285 -0.226033 -0.974110 0.004324
-0.003424 -0.021643 0.085405 -0.148820 -0.963447 0.222760
-0.025428 -0.019770 0.060256 -0.636791 -0.741945 0.209797
0.021077 0.014504 0.006173 0.519791 0.853329 0.040589
0.019306 0.015426 -0.010827 0.482816 0.875628 -0.012836
0.024048 -0.013293 0.065287 0.645475 -0.315257 0.695683
-0.038584 0.028193 -0.073409 -0.679863 0.722618 -0.124938
0.000297 0.024388 0.009977 0.307194 0.951633 -0.005196
0.028557 -0.031462 -0.082634 0.128959 -0.405114 -0.905125
-0.042278 -0.007447 -0.064781 -0.817563 -0.565237 -0.109988
0.018147 0.016212 0.004613 0.466113 0.884040 0.034815
0.009369 -0.019139 0.083974 0.498120 -0.867041 0.010803
0.042195 -0.012499 0.044870 0.886912 -0.220196 0.406079
-0.041911 0.004873 -0.024331 -0.948280 0.259926 0.182219
0.004026 -0.033863 -0.067631 -0.202607 -0.976828 -0.068980
-0.014785 0.001539 0.087238 -0.268404 0.079018 0.960060
0.046476 -0.011211 0.028056 0.994435 -0.096999 0.041122
0.039610 -0.003514 -0.017137 0.995926 -0.065200 0.062290
-0.002598 0.025363 0.015354 0.295248 0.955310 -0.014521
0.015517 0.017670 -0.024635 0.476931 0.878408 0.030598
0.031588 -0.032958 0.035353 0.194709 -0.978884 0.062245
0.027173 -0.032370 -0.003314 0.551558 -0.824959 -0.123396
-0.032559 0.027886 -0.034967 -0.522941 0.815149 0.249127
0.042019 -0.007657 -0.082240 0.417303 -0.073470 -0.905793
0.030230 0.008518 0.020189 0.563134 0.826240 -0.014391
-0.021605 0.025280 0.058932 -0.373465 0.640603 0.670934
-0.005586 -0.030584 -0.071873 -0.408349 -0.909438 -0.078572
-0.003516 -0.013262 0.090151 -0.177837 -0.934433 0.308559
-0.039813 0.027291 -0.060898 -0.814901 0.579564 -0.006526
0.002683 0.025428 0.058693 0.349119 0.823711 -0.446785
0.021009 -0.033950 -0.081160 0.082639 -0.664852 -0.742390
0.007942 -0.031411 -0.014868 -0.247587 -0.968865 0.000531
0.011453 0.004784 0.087638 0.513507 0.303252 0.802713
0.012071 0.003239 0.087668 0.551869 0.196239 0.810513
0.018475 -0.006813 0.085962 0.873999 -0.234336 0.425690
-0.000444 0.018674 0.078254 0.051287 0.998379 -0.024687
-0.006592 0.026637 0.032466 0.229813 0.972986 -0.021981
-0.027967 0.029913 -0.044540 0.040021 0.999159 0.008933
0.001884 0.010788 0.089130 0.199781 0.894874 0.399110
-0.016702 0.028594 -0.039430 0.169616 0.985271 0.021700
-0.043220 0.020305 0.025732 -0.907379 0.420280 0.005193
0.036717 -0.032627 -0.072298 0.732411 -0.678836 -0.052500
-0.008983 -0.021169 -0.083450 -0.018320 -0.031898 -0.999323
-0.031145 0.017410 0.057329 -0.612346 0.401601 0.680991
-0.043353 -0.005391 -0.065450 -0.843047 -0.521120 -0.133065
-0.028693 -0.019504 -0.065259 -0.561526 -0.824090 0.074595
0.007227 0.025224 0.063677 0.264629 0.822748 0.503048
0.024048 0.014288 -0.081552 0.388506 0.548841 -0.740160
0.019374 0.015460 -0.002252 0.485299 0.874254 0.012826
-0.033901 0.011269 0.057910 -0.663541 0.272646 0.696691
-0.010228 -0.025230 0.017844 -0.414684 -0.909958 0.003607
0.002523 0.023319 0.067558 0.107368 0.788248 0.605918
-0.004732 0.025927 -0.018322 0.277914 0.960606 0.000760
0.029854 0.008811 0.003354 0.542034 0.839989 0.024848
-0.022800 -0.018485 -0.002897 -0.506926 -0.861854 0.015314
0.011591 -0.032302 -0.013841 -0.250256 -0.968120 0.010753
0.022998 0.014983 0.062579 0.659431 0.515494 0.547190
-0.046737 0.003916 0.038436 -0.969932 -0.104350 0.219869
-0.015089 -0.015525 0.081407 -0.738575 -0.673465 -0.030841
-0.013892 0.016884 0.070549 -0.448450 0.610201 0.653106
0.031620 -0.034626 -0.074026 0.088976 -0.995583 -0.029968
-0.008376 -0.026255 0.043319 -0.371237 -0.927635 -0.040953
0.043347 -0.003194 -0.038392 0.922864 0.352746 0.154570
0.013301 0.018614 -0.011940 0.450249 0.892883 0.005957
-0.035327 0.019951 -0.002142 -0.830100 0.513336 -0.217761
-0.020889 0.001236 0.081883 -0.993084 0.114819 -0.024518
-0.041107 0.006009 0.050944 -0.823679 0.172298 0.540246
0.017399 0.017213 0.035806 0.483481 0.874464 -0.039480
-0.021905 0.028596 0.025991 0.074295 0.997236 -0.000357
-0.034340 0.027082 0.043259 -0.510703 0.814896 0.274092
-0.017109 0.009598 0.074991 -0.764225 0.509203 -0.395819
0.025099 0.012012 -0.001015 0.564712 0.824943 0.023876
-0.002670 -0.021563 0.077539 -0.086140 -0.994588 -0.058087
0.038498 0.001968 0.049092 0.808002 0.559450 0.184791
0.023470 0.015717 -0.059124 0.568128 0.813311 0.125522
0.033119 -0.026051 -0.027197 0.830471 -0.510337 0.223325
-0.000093 0.027902 -0.069607 0.336477 0.941317 -0.026551
0.037777 0.002667 -0.081161 0.579093 0.463502 -0.670684
0.008217 -0.014397 0.087223 0.056858 -0.063323 0.996372
0.030214 0.008875 -0.011535 0.564781 0.823818 0.048432
-0.044541 -0.004629 -0.051157 -0.705672 -0.708218 0.021298
0.008739 -0.032604 -0.049200 -0.152267 -0.984105 0.091394
-0.036268 0.021392 0.048376 -0.729318 0.482393 0.485172
0.017009 0.017674 -0.042074 0.483171 0.870281 0.095691
0.012531 0.019595 0.025392 0.460676 0.887561 -0.003492
0.024740 -0.020276 -0.081438 -0.125562 0.245446 -0.961244
-0.018407 -0.021276 -0.015375 -0.494654 -0.868837 0.020950
0.017213 0.016713 -0.024821 0.478553 0.877793 0.021606
0.016773 0.006807 0.073928 0.905895 0.371063 0.204124
-0.038920 -0.007770 -0.081733 -0.490565 -0.441588 -0.751230
-0.018108 -0.012111 0.083476 -0.852552 -0.522206 0.021378
0.015906 0.018086 -0.040226 0.464115 0.883518 0.063186
0.019197 0.015698 0.004346 0.491339 0.870750 0.019511
0.021736 -0.034232 -0.045972 -0.116249 -0.992967 0.022416
-0.022599 0.029555 -0.024789 0.009192 0.999803 0.017572
0.021232 -0.026044 -0.083303 0.043381 0.175969 -0.983439
0.044877 -0.004924 0.018208 0.891486 0.451000 -0.043027
-0.006228 -0.027586 0.053780 -0.347575 -0.936939 -0.036558
0.004079 0.018291 0.082659 0.187141 0.981105 -0.049108
0.003543 0.013907 -0.082836 -0.081454 -0.202943 -0.975797
0.019652 -0.000936 0.083336 0.998378 0.055081 -0.014423
-0.009426 0.024517 -0.083381 0.048650 0.251625 -0.966601
0.026076 0.012896 0.051484 0.564944 0.822671 -0.063644
0.015925 0.018818 0.046494 0.478697 0.874887 -0.073636
-0.015115 -0.024162 0.059752 -0.344347 -0.767807 -0.540276
-0.007298 -0.027005 -0.029517 -0.369250 -0.928962 0.026141
0.040794 -0.025311 -0.071001 0.905807 -0.421089 -0.046868
-0.019294 -0.020500 0.040114 -0.524626 -0.849979 -0.048002
-0.047508 0.001691 0.022159 -0.931186 -0.363865 -0.022267
-0.005768 -0.027070 0.012801 -0.345025 -0.938518 0.011929
0.025001 0.012301 0.030906 0.549287 0.835520 -0.013790
0.022894 -0.034057 -0.001254 0.097415 -0.995160 -0.012886
0.031739 0.004183 -0.083197 0.212344 0.198490 -0.956824
-0.032898 0.028994 0.020000 -0.112184 0.993687 -0.001233
0.011207 0.020075 -0.033799 0.425301 0.904170 0.039933
0.021581 0.014587 0.032569 0.538681 0.840459 -0.058751
-0.046062 -0.000869 0.017358 -0.837682 -0.546146 0.003616
-0.024793 -0.017181 0.008143 -0.507725 -0.861223 0.022575
-0.037487 0.015014 -0.005175 -0.874292 0.463137 -0.145319
0.024837 -0.034550 -0.047054 -0.071661 -0.997299 0.016117
-0.039662 -0.008591 -0.005277 -0.670087 -0.742156 0.013705
-0.042414 -0.006060 -0.028988 -0.831293 -0.550117 0.079516
0.016821 0.016925 0.011600 0.501406 0.864866 -0.024479
0.004488 -0.033294 -0.070441 -0.218227 -0.970234 -0.104994
-0.013145 -0.017803 0.073310 -0.427736 -0.493262 0.757453
-0.048295 0.003389 -0.045160 -0.976972 0.047419 0.208034
-0.026111 0.007707 0.065567 -0.672814 0.255732 0.694207
-0.034658 0.029989 -0.059015 -0.177981 0.984000 0.008151
0.003066 0.023252 -0.019290 0.356817 0.934124 0.009720
-0.041462 -0.006327 -0.080499 -0.678102 -0.515385 -0.523981
-0.023406 -0.017110 -0.083361 -0.088602 -0.181132 -0.979460
0.039370 -0.023119 0.042010 0.826964 -0.443213 0.345968
0.028268 0.003668 -0.083605 0.068959 0.069594 -0.995189
-0.030221 0.025126 -0.010077 -0.779248 0.622297 -0.074289
-0.024473 -0.010052 -0.083585 0.136080 0.167818 -0.976381
0.030620 -0.033236 0.010825 0.307839 -0.944209 -0.117068
-0.046094 0.009875 -0.043810 -0.915543 0.339074 0.216355
0.000092 0.026016 0.056475 0.294124 0.946735 -0.131086
-0.003611 0.008268 0.101283 -0.279890 0.940462 0.192855
0.028417 -0.012592 -0.081150 -0.177127 0.019122 -0.984002
0.015635 0.018253 0.036171 0.505898 0.861583 -0.041734
0.001658 0.024073 0.021626 0.312413 0.949848 -0.013663
-0.011004 -0.024086 -0.082977 -0.104374 -0.241737 -0.964712
0.017952 0.016683 0.027637 0.529469 0.848074 -0.020839
0.035069 -0.020741 -0.005462 0.879846 -0.454853 -0.137770
0.021548 0.018398 -0.073982 0.638381 0.769679 -0.008050
-0.003919 0.025622 0.006355 0.267202 0.963513 -0.015678
-0.044467 -0.002896 0.014997 -0.744435 -0.667488 0.016639
0.013469 0.018895 0.014190 0.454472 0.890693 -0.011044
-0.026539 0.030206 -0.066155 -0.215062 0.975051 -0.054987
0.008087 -0.033539 -0.057789 -0.163219 -0.977735 0.131885
0.018928 0.015983 0.022927 0.507723 0.861476 -0.008706
0.006057 -0.006051 0.107101 0.472280 -0.329549 0.817526
0.025411 0.011869 0.014068 0.546032 0.837587 -0.017233
-0.042636 -0.003849 -0.003428 -0.953055 -0.283691 -0.105860
0.002820 0.025894 -0.058350 0.313532 0.942653 0.114466
0.007185 -0.030947 0.047973 -0.189602 -0.979229 -0.071839
-0.001137 -0.029774 0.064145 -0.012212 -0.811994 0.583538
0.029219 0.009128 0.013713 0.536332 0.843913 -0.012557
-0.041310 -0.006307 -0.008392 -0.896994 -0.440520 -0.036652
0.021738 0.014381 0.031380 0.533676 0.845208 -0.028517
0.045656 -0.007039 -0.078006 0.912380 0.133760 -0.386873
0.038051 0.004576 -0.067578 0.718886 0.694390 -0.032021
0.030867 0.010850 -0.062715 0.619863 0.775579 0.119363
-0.006671 0.026338 -0.022296 0.258512 0.966008 -0.000627
-0.024181 -0.018180 -0.023777 -0.502341 -0.864187 0.028880
0.040849 -0.006644 0.049476 0.864513 -0.053081 0.499800
-0.021050 -0.019228 0.014892 -0.512346 -0.858746 0.007575
0.035580 -0.029601 -0.080278 0.620639 -0.369187 -0.691742
-0.035093 -0.012682 -0.052734 -0.587913 -0.799554 0.122768
-0.016237 0.028180 0.032551 0.101282 0.994689 -0.018336
0.029799 0.008859 0.011857 0.518125 0.854720 0.031615
0.001757 0.025139 0.048869 0.306006 0.950253 -0.058130
-0.006995 -0.026531 0.032243 -0.352526 -0.935776 -0.007035
-0.015164 0.010086 0.087117 -0.212716 0.197541 0.956938
-0.036035 0.005818 0.057397 -0.710566 0.158825 0.685471
0.014373 0.021501 -0.061741 0.444374 0.890179 0.100564
0.025836 -0.032399 -0.015989 0.550475 -0.834485 0.024722
-0.019401 0.030174 -0.066993 0.079091 0.985625 -0.149294
0.016202 -0.012630 0.082249 0.860459 -0.505356 -0.065004
-0.010110 -0.025949 -0.032807 -0.399624 -0.915356 0.049236
-0.018339 0.028913 -0.041416 0.151164 0.988123 0.027609
-0.017072 0.004066 0.087296 -0.084167 0.064679 0.994350
-0.009027 -0.028581 0.063978 -0.278762 -0.845916 0.454662
-0.048499 0.003460 -0.077488 -0.930127 0.041954 -0.364834
-0.047625 0.004133 0.033792 -0.980559 -0.154333 0.121181
0.005349 0.026054 0.063274 0.212111 0.897737 0.386105
0.044079 -0.018283 0.032198 0.930545 -0.358630 0.073964
0.000353 0.024243 -0.018807 0.335383 0.941778 0.023925
-0.029656 -0.015040 -0.028440 -0.519467 -0.854385 0.013465
-0.002406 0.025672 -0.082075 0.143150 0.600992 -0.786331
-0.012563 -0.024111 0.014229 -0.447741 -0.894097 0.010917
-0.013674 0.027839 0.018987 0.159499 0.987139 0.010804
0.017566 0.017065 0.034603 0.477516 0.877601 -0.042377
-0.037282 -0.008905 0.018753 -0.586774 -0.808872 0.037727
-0.029624 0.013617 -0.081361 0.153896 -0.210385 -0.965430
0.036005 -0.030343 -0.042342 0.809397 -0.524383 0.264385
-0.042259 -0.002308 -0.082357 -0.425020 -0.260733 -0.866820
0.026803 -0.021212 0.059654 0.568989 -0.378971 0.729817
0.014717 0.020156 -0.053262 0.451236 0.882588 0.132002
0.042565 -0.005131 -0.033467 0.963541 0.022328 0.266626
-0.033450 -0.010871 0.057424 -0.737018 -0.555845 0.384500
-0.029066 0.028413 0.047405 -0.307769 0.921127 0.238336
0.021820 0.017873 0.058973 0.450098 0.787893 -0.420281
0.010945 0.021223 0.044896 0.429865 0.900401 -0.067044
0.016309 0.017102 -0.022779 0.447916 0.893913 0.017064
0.022308 0.013832 0.015594 0.519719 0.854305 -0.007494
-0.012563 -0.024111 0.014229 -0.447741 -0.894097 0.010917
-0.020738 -0.002069 0.077619 -0.997809 -0.047817 -0.045717
0.045395 -0.013784 0.018402 0.952701 -0.259606 -0.158006
-0.031543 -0.002281 0.062354 -0.631955 0.009386 0.774948
-0.007531 0.007188 0.096743 -0.618232 0.762680 0.190021
0.000403 0.024353 -0.024513 0.347438 0.937675 0.007262
-0.016047 -0.022200 0.016897 -0.494425 -0.869167 0.009608
0.029984 -0.021531 0.056780 0.631137 -0.385554 0.673063
0.010545 0.022748 -0.057024 0.406104 0.905046 0.126382
0.011853 -0.031578 0.012299 -0.187416 -0.981327 0.043268
0.010006 0.010177 -0.082786 -0.130515 -0.167454 -0.977203
0.001045 0.024029 -0.006950 0.344359 0.938817 -0.006302
0.041865 -0.001120 -0.074140 0.783928 0.620775 -0.009780
0.041416 -0.015344 0.044835 0.869094 -0.272032 0.413127
0.022096 0.004860 0.069568 0.733332 0.209279 0.646859
0.013530 0.018781 0.012135 0.474642 0.879981 -0.018671
0.006899 -0.000966 0.107440 0.273102 -0.008252 0.961950
0.010545 0.022748 -0.057024 0.406104 0.905046 0.126382
-0.001490 0.024065 -0.082802 0.113340 0.326631 -0.938331
-0.005071 0.026524 0.039625 0.239659 0.969689 -0.047615
0.007773 -0.017537 -0.081415 0.086715 0.124584 -0.988413
-0.022441 -0.019640 -0.035142 -0.509060 -0.859711 0.041893
0.012512 0.002165 0.087581 0.540855 0.149824 0.827664
0.022709 -0.034349 -0.039854 -0.136038 -0.990567 -0.016462
-0.037270 0.023783 -0.080901 -0.519347 0.242142 -0.819540
0.031015 0.008071 0.008533 0.628235 0.777825 0.017613
-0.028489 0.026587 -0.082634 -0.054812 0.414379 -0.908452
-0.017586 0.028450 0.038001 0.098653 0.994423 -0.037297
-0.042019 -0.004351 -0.009440 -0.969003 -0.242592 -0.046717
-0.017031 -0.022097 -0.016226 -0.487555 -0.872845 0.020776
0.002556 0.018329 0.080340 0.190359 0.980934 -0.039142
-0.042878 0.020904 -0.053761 -0.899965 0.427746 0.084237
0.001055 -0.029129 0.016528 -0.254265 -0.966988 0.016814
0.017817 0.002914 0.086821 0.436724 0.130701 0.890050
0.023000 0.017167 -0.066399 0.564828 0.823094 0.059040
0.020449 0.015320 -0.037332 0.519554 0.853268 0.044692
0.039242 0.001651 0.041778 0.700115 0.713801 -0.018088
0.007980 0.015229 0.086876 0.121676 0.290683 0.949051
-0.011874 0.027644 0.003937 0.200494 0.979667 -0.007365
-0.021204 -0.020615 0.057986 -0.388978 -0.847466 -0.361243
0.033189 -0.025820 -0.000894 0.829920 -0.503647 -0.239943
0.023196 0.013525 0.029937 0.545543 0.838014 -0.010757
0.002019 0.023880 -0.033302 0.340150 0.939799 0.032808
-0.007706 0.017601 0.085078 -0.334520 0.909005 0.248611
-0.033874 0.028421 0.038127 -0.339527 0.934410 0.107697
-0.018065 0.028794 -0.030837 0.181377 0.983376 -0.008591
0.033201 0.007005 -0.049533 0.602393 0.794632 0.075386
0.030614 0.008261 0.004343 0.504742 0.863095 0.017378
0.014398 0.019193 0.040583 0.476957 0.876950 -0.058910
-0.042169 -0.004222 0.043121 -0.746645 -0.663305 0.050473
0.040001 0.000647 -0.027792 0.885744 0.455074 0.091469
0.034825 -0.019984 -0.012194 0.891438 -0.452662 -0.020881
0.035879 -0.008362 -0.082738 -0.042851 -0.137756 -0.989539
0.022841 0.016878 -0.063750 0.549095 0.826209 0.125988
-0.019100 -0.005590 0.087180 -0.420151 -0.083498 0.903605
0.015772 0.018259 0.037991 0.507250 0.860869 -0.040040
-0.015592 0.030528 -0.064925 0.069103 0.997595 -0.005388
0.043124 -0.020141 -0.055350 0.919154 -0.391183 0.046172
0.014752 0.018386 0.019499 0.478954 0.877457 -0.025926
0.010214 0.020711 0.021499 0.425648 0.904505 -0.026363
0.024894 0.012210 -0.008487 0.533395 0.845866 -0.001020
0.013238 0.020320 -0.049210 0.436654 0.892781 0.110795
-0.013554 0.027950 -0.081870 0.070352 0.661459 -0.746675
-0.014816 -0.022096 0.068336 -0.439097 -0.642714 0.627783
-0.034666 0.029759 -0.067630 -0.038824 0.999210 -0.008512
0.009292 0.025318 0.061841 0.420686 0.903087 -0.086359
-0.016282 -0.019987 -0.083312 -0.058439 -0.152559 -0.986565
0.026890 -0.034438 -0.067417 0.113063 -0.993543 -0.009449
-0.024226 -0.019803 -0.049282 -0.532793 -0.838906 0.111213
0.035751 0.004252 0.053298 0.802397 0.525382 0.283076
0.002792 -0.031410 -0.048711 -0.231686 -0.967334 0.102891
-0.047445 0.011218 -0.065702 -0.930706 0.365617 0.010493
0.032556 -0.000871 0.059966 0.669943 0.010322 0.742341
-0.014268 0.028036 -0.033463 0.189225 0.981899 0.008267
-0.009401 -0.013104 0.087530 -0.183349 -0.258868 0.948351
-0.020161 0.026268 0.058601 -0.301279 0.733003 0.609867
0.030926 0.008369 -0.009518 0.510582 0.859794 -0.007792
-0.038268 -0.007959 0.049333 -0.716760 -0.693865 0.069331
0.012027 0.020086 -0.040389 0.432109 0.898743 0.074448
-0.042555 -0.006434 -0.071298 -0.870594 -0.492001 0.000919
0.019172 -0.033715 -0.081408 -0.030098 -0.722428 -0.690791
0.008333 0.021786 0.031573 0.399888 0.916039 -0.031026
-0.020292 0.029152 -0.001233 0.133758 0.990423 0.034218
0.007580 0.006224 0.095419 0.822769 0.563905 0.071144
-0.039958 0.010110 -0.081394 -0.149494 0.173865 -0.973356
0.020733 0.018317 -0.079635 0.417334 0.779292 -0.467479
-0.017063 -0.022156 -0.021021 -0.477230 -0.878400 0.025791
-0.047445 0.011218 -0.065702 -0.930706 0.365617 0.010493
0.039742 -0.003017 0.051221 0.869013 0.154894 0.469920
-0.030670 -0.014408 -0.025977 -0.511519 -0.859231 0.008433
0.007384 -0.010918 0.088947 0.609769 -0.651462 0.451419
0.007357 0.022351 0.038034 0.382104 0.923374 -0.037106
-0.001443 -0.022573 0.072980 -0.049728 -0.704281 0.708177
-0.036709 0.028111 0.026252 -0.383583 0.923419 0.012715
-0.040355 0.023629 -0.046340 -0.858879 0.474398 0.193064
0.026431 -0.032719 -0.004215 0.476947 -0.871913 -0.110862
0.039474 0.001892 -0.048372 0.656114 0.754336 0.022179
-0.029066 0.028413 0.047405 -0.307769 0.921127 0.238336
-0.045970 0.002718 0.008804 -0.958342 0.005486 -0.285570
-0.016484 -0.026568 -0.069356 -0.476500 -0.877340 -0.056775
0.013526 -0.016319 0.073075 0.476988 -0.443627 0.758734
0.015475 0.018656 -0.044247 0.456370 0.886075 0.081221
0.013011 0.019459 0.028315 0.454271 0.890806 -0.010117
0.042448 -0.003454 -0.033644 0.949500 0.223410 0.220311
0.044862 -0.003424 -0.060944 0.792980 0.607021 -0.052039
0.018229 0.016262 0.014332 0.475836 0.878966 -0.031623
0.005503 -0.019871 0.074333 0.412979 -0.897102 0.157022
-0.015609 0.028144 0.021721 0.107976 0.994047 0.014564
-0.016594 -0.025069 -0.081196 -0.350159 -0.762553 -0.543968
-0.014700 0.028242 0.014220 0.153243 0.988153 -0.008363
-0.034454 -0.011914 -0.081962 -0.460942 -0.459153 -0.759415
-0.041418 0.007449 -0.081773 -0.160129 0.204985 -0.965577
0.001157 0.027110 -0.072566 0.431654 0.901307 -0.036332
0.022187 0.014737 0.041629 0.545285 0.835815 -0.063863
-0.020917 0.012426 0.068170 -0.622326 0.438573 0.648354
-0.035819 0.023250 -0.033002 -0.780505 0.531865 0.328530
0.009361 0.003227 0.096482 0.888046 0.419645 0.187809
0.008786 -0.034218 -0.061823 -0.159336 -0.978637 0.129931
-0.028033 0.029701 -0.077896 -0.168100 0.982194 -0.083893
-0.021925 -0.014665 0.068307 -0.655635 -0.385002 0.649551
-0.003430 -0.019019 0.087448 -0.013549 -0.152833 0.988159
0.039485 -0.001157 -0.014460 0.987583 0.157070 -0.002923
0.018656 0.018448 0.063979 0.561978 0.590442 0.579275
-0.034783 -0.010987 0.051903 -0.644025 -0.765004 0.000774
-0.032625 -0.012890 -0.082450 -0.385739 -0.400147 -0.831317
0.004801 -0.021064 0.081856 0.299864 -0.953557 -0.028458
-0.033771 -0.012531 -0.017159 -0.486436 -0.873672 0.008813
0.001016 0.017032 0.086980 0.026425 0.335023 0.941839
0.017989 0.005605 0.076820 0.923829 0.376492 -0.069231
0.026914 0.010844 0.015182 0.593265 0.804996 0.004287
0.046565 -0.007408 -0.074591 0.976398 0.184259 -0.112679
0.024766 0.009380 -0.083286 0.142388 0.184577 -0.972449
-0.032415 0.029489 -0.073464 0.043521 0.999030 -0.006730
0.038000 0.003188 -0.006510 0.791105 0.610975 -0.029376
0.026345 0.011177 -0.005967 0.542203 0.840245 0.002283
0.031813 -0.025418 0.052075 0.676420 -0.470178 0.566912
0.031223 -0.030335 0.047387 0.571145 -0.726435 0.382212
0.015872 0.017350 -0.019154 0.468180 0.883557 0.011581
0.007821 0.021333 -0.026205 0.396276 0.917834 0.023376
-0.020254 0.004185 0.081845 -0.956013 0.292442 -0.022736
0.018134 -0.035226 -0.061447 -0.066555 -0.992523 0.102320
-0.016451 0.010482 0.086288 -0.645674 0.493479 0.582737
-0.042822 0.014521 0.043006 -0.859738 0.356644 0.365588
-0.009405 -0.026827 -0.042359 -0.384432 -0.919935 0.077024
0.017578 0.016976 0.066423 0.556587 0.571121 0.603350
0.026339 -0.032359 -0.007472 0.540205 -0.834682 -0.107167
-0.020803 -0.024250 -0.065516 -0.465041 -0.878717 0.107669
-0.047410 -0.000745 -0.074001 -0.714583 -0.699125 -0.024400
0.020248 0.008456 0.070069 0.693936 0.326663 0.641673
-0.044439 0.018372 -0.066196 -0.907768 0.419175 0.015769
-0.016727 0.028680 -0.019603 0.193998 0.980970 -0.007912
0.025283 0.011961 0.014669 0.544283 0.838544 -0.024510
0.041799 -0.012697 -0.081208 0.455760 -0.257541 -0.852030
-0.001554 -0.000766 -0.080683 -0.072761 -0.124271 -0.989577
-0.013950 -0.023355 0.017117 -0.467816 -0.883809 0.005458
0.010805 0.019856 -0.006030 0.436559 0.899536 -0.015844
-0.033438 -0.014278 -0.080755 -0.561274 -0.595933 -0.574312
0.001589 -0.032886 -0.073509 -0.037191 -0.998921 0.027797
-0.013897 0.027877 0.031387 0.115437 0.993271 -0.009276
0.019475 -0.032126 0.029743 -0.140130 -0.990094 0.008740
-0.001798 0.025168 0.019696 0.283975 0.958732 0.013797
-0.012367 0.015257 0.082118 -0.543089 0.838920 -0.035595
0.043684 -0.017659 -0.075399 0.903186 -0.367456 -0.221880
0.025884 -0.031203 -0.082930 0.014682 -0.343940 -0.938877
0.023270 0.013208 -0.016687 0.530799 0.847137 -0.024722
0.008130 0.022949 0.051700 0.390982 0.919390 -0.043060
0.029020 -0.029055 -0.014047 0.795778 -0.605584 0.002436
-0.004292 -0.028631 0.059258 -0.323280 -0.830191 -0.454173
-0.008176 0.026857 -0.020153 0.245600 0.969271 -0.013966
0.040905 -0.025086 -0.066645 0.912087 -0.409986 0.002793
0.012497 0.023754 0.061191 0.345316 0.867333 -0.358457
0.011739 0.023139 -0.077869 0.509006 0.846912 -0.153793
0.019733 0.015297 0.011644 0.496385 0.867851 -0.020875
-0.028587 -0.015785 -0.032721 -0.532652 -0.846117 0.019169
0.029999 0.008849 -0.039589 0.591160 0.806501 0.009325
0.029759 0.010312 0.052055 0.578671 0.807598 -0.113689
0.016885 0.014761 -0.083045 0.087860 0.199440 -0.975963
-0.036973 -0.011898 -0.068140 -0.657308 -0.745516 -0.110237
0.000301 -0.030605 -0.082172 -0.151125 -0.578213 -0.801767
-0.034730 0.027968 -0.039715 -0.541005 0.809915 0.226609
0.037311 -0.017322 -0.025696 0.902675 -0.386119 0.189974
0.047130 -0.009189 -0.065673 0.991663 -0.126408 -0.025002
-0.012338 -0.022334 0.069702 -0.378529 -0.676587 0.631622
0.023759 -0.030528 0.054888 0.401188 -0.767788 0.499550
0.026977 -0.032480 -0.023592 0.535491 -0.834741 0.128284
0.046211 -0.005725 -0.071536 0.878986 0.474913 -0.042907
-0.001959 0.025070 0.004824 0.280380 0.959790 -0.013827
0.002651 -0.032339 -0.056591 -0.222397 -0.966666 0.126871
-0.018138 -0.024415 -0.081106 -0.337894 -0.708497 -0.619565
0.023221 -0.034517 -0.036105 -0.072941 -0.997334 0.001898
-0.030558 -0.013229 0.041223 -0.563022 -0.825112 -0.046875
0.008587 -0.031525 -0.012220 -0.241514 -0.970279 0.015161
0.023356 0.013305 -0.030781 0.533345 0.845797 0.013041
0.018966 0.017145 0.047287 0.498913 0.863004 -0.079430
0.001721 0.011697 0.087848 0.136981 0.613199 0.777961
0.025094 0.012155 -0.023834 0.534661 0.845066 0.000741
-0.028850 0.029434 -0.034637 -0.234400 0.965265 0.115414
-0.045978 0.000162 -0.036227 -0.962771 -0.141716 0.230191
0.034865 -0.033643 -0.074856 0.437747 -0.893500 -0.100178
-0.024040 -0.017287 0.022253 -0.528957 -0.848475 0.017174
0.014344 0.018667 0.025485 0.475140 0.879904 0.003402
0.037187 -0.014293 -0.015662 0.950961 -0.308126 0.027051
0.045239 -0.008660 0.013622 0.973629 -0.000471 -0.228137
-0.028917 0.027660 -0.024299 -0.529814 0.836352 0.140758
0.032922 -0.033794 -0.078327 0.342556 -0.884643 -0.316325
-0.018594 0.029801 -0.078698 0.068180 0.981866 -0.176892
0.014198 0.001755 -0.082062 -0.033342 -0.124537 -0.991655
-0.031533 -0.014221 0.055913 -0.712978 -0.699654 0.046329
-0.002051 -0.007121 -0.080881 0.060659 0.131362 -0.989477
0.034367 -0.021490 -0.019954 0.878625 -0.466998 0.099652
-0.044475 0.006993 0.044347 -0.902811 0.176165 0.392298
0.009580 -0.001358 0.100495 0.980928 0.009671 0.194129
-0.004069 0.011536 0.087748 -0.135503 0.585828 0.799027
-0.030995 0.028943 0.028002 0.007945 0.999960 -0.004110
-0.024122 0.027982 -0.082032 -0.039960 0.554808 -0.831018
-0.035406 0.026806 -0.038042 -0.677808 0.671790 0.298787
-0.010881 -0.028012 -0.057331 -0.384363 -0.913815 0.131177
-0.025981 -0.012992 0.065223 -0.666972 -0.337583 0.664219
-0.034508 0.028232 -0.080053 -0.340959 0.718674 -0.606016
0.004262 -0.012741 0.089344 0.363614 -0.843848 0.394596
0.012797 0.000369 0.087684 0.580664 0.067407 0.811348
-0.048455 0.008445 -0.071082 -0.946965 0.314330 -0.066738
0.014649 0.018489 0.026222 0.470224 0.882545 -0.001725
0.038372 0.002756 0.005396 0.668347 0.743467 0.023868
0.030933 0.008298 -0.003484 0.528745 0.848682 0.012966
0.020307 0.019164 -0.073447 0.415809 0.909422 0.007432
0.043123 -0.013361 -0.079876 0.669331 -0.300489 -0.679487
0.028624 0.010381 0.041603 0.574638 0.816340 -0.058148
-0.043716 -0.003689 0.007079 -0.860537 -0.506220 -0.056720
-0.014212 -0.016543 0.077178 -0.688642 -0.724717 -0.023624
0.035842 -0.020190 -0.002794 0.875076 -0.441156 -0.199057
0.008284 0.023047 0.055626 0.390076 0.920344 -0.028427
0.029289 -0.034377 -0.068208 -0.027597 -0.999471 0.017203
-0.017077 0.016207 0.068711 -0.532640 0.555716 0.638337
0.030593 -0.027317 -0.008982 0.815860 -0.570574 -0.093902
-0.041254 0.024788 -0.057565 -0.881766 0.469878 0.041279
0.029255 0.012355 -0.064327 0.607500 0.786492 0.111236
0.015540 0.020193 -0.056399 0.457677 0.879848 0.128063
-0.017961 -0.022038 -0.032037 -0.475986 -0.878560 0.039619
0.042715 -0.002157 0.028266 0.742118 0.670189 0.010362
-0.031370 0.027890 -0.032348 -0.525628 0.822530 0.217164
-0.005647 -0.009551 -0.081596 0.064303 0.127912 -0.989699
-0.003364 -0.028027 0.002972 -0.315404 -0.948913 0.009216
0.020071 0.015906 0.039974 0.523684 0.849661 -0.061892
