0.002019 0.009788 -0.011855 0.215600 -0.796424 0.565000
-0.064235 -0.033647 -0.009071 0.182763 0.005934 0.983139
0.038359 0.043693 -0.009854 0.243590 -0.080245 0.966553
-0.034095 -0.041174 0.009041 -0.387363 0.654592 -0.649199
0.043675 -0.035611 0.003398 0.299625 0.630752 0.715805
-0.087805 -0.023351 -0.000328 -0.990754 0.134884 -0.014563
-0.061805 -0.034594 0.010210 0.057996 0.256013 -0.964932
-0.055073 0.014045 0.011726 0.028942 -0.058936 0.997842
0.046900 0.059187 -0.011578 -0.045086 0.073813 -0.996252
-0.032782 0.016847 -0.009584 -0.088622 -0.295086 0.951352
-0.003250 0.009815 -0.007245 -0.218110 0.766783 0.603715
-0.005360 0.004384 -0.016441 -0.039014 0.367845 -0.929068
0.046914 -0.043221 -0.004268 0.431060 0.449945 -0.782136
0.034057 -0.027404 0.000679 0.398233 0.887153 -0.233173
0.034817 -0.035276 0.011431 -0.076241 -0.150058 0.985733
-0.068270 -0.015632 -0.009850 -0.218949 0.959434 0.177619
-0.007270 -0.027424 -0.010069 0.013598 0.116815 0.993061
0.086706 -0.069016 -0.001829 0.208286 0.977913 -0.017401
-0.013121 -0.005022 -0.013558 -0.796763 -0.124218 -0.591387
-0.033674 0.032372 0.005675 -0.072333 -0.986072 0.149765
-0.095642 -0.021271 -0.007977 -0.487950 -0.872471 -0.026432
-0.084539 -0.005077 0.010613 -0.464288 -0.799547 0.381001
-0.085018 0.000179 -0.008118 0.755638 -0.649562 -0.084146
0.072260 -0.052544 -0.013568 -0.032639 -0.055217 -0.997941
0.066819 0.088929 0.007612 -0.478343 0.749778 0.457187
-0.063377 0.004142 0.009489 0.079694 -0.900968 -0.426503
0.051765 -0.032532 -0.010523 0.098523 0.141321 0.985049
-0.067108 -0.033838 0.007928 0.660257 0.729848 0.177152
-0.073486 -0.033815 -0.004757 -0.605607 -0.783394 -0.139769
-0.052718 0.018674 0.011971 0.013938 -0.068258 0.997570
0.011906 -0.031526 0.009159 -0.053030 -0.705860 0.706364
-0.084884 0.010213 -0.012437 -0.309878 0.432142 -0.846894
-0.025903 -0.039356 -0.012469 -0.018273 0.011763 -0.999764
-0.055597 -0.019467 0.009950 0.296813 0.733187 -0.611833
0.026002 -0.031159 0.011494 -0.058101 -0.187587 0.980528
0.041100 0.050142 -0.011813 -0.008134 0.060565 -0.998131
-0.051291 0.020281 0.012062 0.014262 -0.059074 0.998152
0.094035 -0.067520 0.003730 -0.224298 0.895930 -0.383407
-0.075593 -0.001594 0.008637 0.154804 -0.188462 -0.969803
0.063015 0.065147 -0.011571 0.479595 -0.395756 -0.783177
-0.010455 -0.019880 0.009437 -0.013596 0.007045 -0.999883
-0.009751 -0.039171 0.009855 0.352853 -0.639169 0.683343
0.046639 -0.034465 0.001230 0.511838 0.756257 0.407551
0.049925 0.057420 -0.009187 0.041753 -0.055789 0.997569
0.074108 -0.065561 -0.001658 -0.450731 -0.892291 -0.025679
0.005932 0.001132 0.004119 0.997598 0.025632 -0.064352
0.022729 -0.038096 0.005855 -0.385622 -0.782638 0.488645
0.004316 -0.036330 0.001737 0.300443 -0.932093 0.202330
-0.013951 -0.046493 -0.002396 0.484188 -0.830750 -0.274620
-0.024605 0.031714 -0.004250 -0.614768 -0.719584 -0.322891
-0.007470 -0.004588 -0.009550 -0.567551 -0.578945 0.585413
-0.017850 0.006337 -0.010656 -0.697251 -0.452171 0.556221
0.083014 -0.053110 -0.013587 -0.002518 0.025023 -0.999684
-0.074656 0.006572 0.011741 0.007882 -0.047696 0.998831
0.015744 0.030238 -0.001248 0.001092 -0.254269 0.967133
0.071579 -0.046231 -0.013495 0.039106 0.064173 -0.997172
0.013651 -0.012355 -0.010086 0.079762 -0.028238 0.996414
-0.042755 -0.024190 -0.011518 0.301050 0.356441 -0.884488
-0.094612 0.002312 -0.012844 -0.391441 0.507858 -0.767368
-0.041005 -0.044036 -0.004819 0.003128 0.468023 -0.883711
0.041938 0.066388 0.008900 -0.521507 0.584748 0.621369
0.018437 0.040130 0.011906 -0.217721 0.241397 0.945687
-0.060071 -0.041294 0.003125 -0.476749 -0.860129 0.181352
-0.002172 -0.027838 -0.004428 -0.146273 0.627971 -0.764366
-0.028775 -0.039265 -0.012426 -0.012079 0.010002 -0.999877
-0.057395 0.021836 0.009456 -0.017781 0.059364 -0.998078
0.004306 0.038252 -0.003530 -0.395508 0.874660 -0.280256
-0.027877 0.021247 -0.012213 -0.014564 0.033857 -0.999321
-0.010706 -0.001936 -0.010196 -0.328101 -0.086065 0.940714
0.075096 0.075749 -0.010357 0.692231 -0.672746 -0.261206
0.060093 0.059782 0.012372 0.619778 -0.637572 0.457577
0.013400 0.024848 0.012187 0.008290 -0.047133 0.998854
0.075662 0.081297 0.010974 -0.036353 -0.051935 -0.997989
-0.012784 -0.009105 -0.010008 -0.001905 -0.036088 0.999347
0.044914 -0.039565 0.011347 -0.044545 -0.127169 0.990880
0.003073 -0.019803 -0.012751 -0.009448 0.015461 -0.999836
-0.032098 -0.037296 0.012102 0.006828 -0.002855 0.999973
-0.069284 -0.024789 0.012882 0.023183 -0.004506 0.999721
0.006505 0.024642 0.009631 -0.104158 -0.177441 -0.978604
-0.024847 -0.031967 -0.012436 -0.024660 0.013133 -0.999610
0.006324 0.009549 0.009357 0.560569 -0.438982 -0.702180
0.017425 0.047654 -0.005065 -0.589546 0.706114 -0.392223
-0.089776 -0.005792 0.005850 0.785256 -0.102887 0.610563
0.011219 -0.031288 -0.010386 -0.039100 -0.695346 -0.717611
0.070042 0.084322 -0.010142 -0.186752 0.305459 -0.933712
0.063951 0.088479 0.003158 -0.596083 0.788356 0.152248
0.067614 0.071782 -0.011392 -0.003974 0.024628 -0.999689
-0.003885 0.036622 -0.003385 0.010592 0.958303 -0.285556
-0.022134 -0.019071 -0.011812 -0.423607 0.620550 -0.659905
0.054780 0.063667 0.000013 0.740759 -0.662109 -0.113527
0.004754 -0.011623 0.015746 0.508218 -0.681818 0.526155
-0.013486 -0.004604 0.012548 -0.701947 -0.215801 -0.678749
-0.020158 -0.031357 -0.009961 0.029512 -0.012269 0.999489
0.024241 0.030519 0.012285 0.006052 -0.039637 0.999196
0.025194 -0.030981 -0.002324 0.287227 0.520884 -0.803854
-0.004754 0.017040 -0.012941 -0.054612 0.584176 -0.809787
0.023003 0.047118 -0.010033 -0.345171 0.431554 -0.833437
0.016518 -0.025552 -0.008558 0.991625 -0.064982 0.111614
-0.074349 -0.016913 0.010298 0.254707 0.348719 -0.901953
-0.050504 -0.041537 -0.008177 0.284734 0.708946 0.645230
0.077110 -0.062343 0.002746 0.597828 0.779513 0.186980
0.050181 -0.037637 -0.001055 0.251955 0.532364 -0.808150
-0.044499 0.024832 -0.009210 0.052138 -0.042162 0.997749
-0.090810 -0.001580 0.000870 -0.088028 0.818870 0.567189
-0.006519 -0.025115 0.005861 -0.818034 0.565926 -0.102704
-0.081484 -0.000339 0.007796 0.673687 -0.084035 -0.734224
-0.070933 -0.034777 -0.008681 -0.434016 -0.863708 -0.256198
-0.092336 -0.006402 0.009241 0.673711 -0.449887 0.586273
0.083419 0.084544 -0.005762 0.008956 -0.934427 0.356042
0.065261 -0.048796 0.011094 -0.031148 -0.080630 0.996257
-0.056464 0.030388 0.012424 -0.167712 0.223927 0.960067
-0.029049 -0.035857 0.009331 -0.002656 0.073743 -0.997274
0.040622 0.040860 0.011841 0.688346 -0.629091 0.361143
-0.081144 0.014751 -0.010707 -0.579087 0.678854 -0.451460
0.088438 -0.059548 -0.010877 -0.031110 -0.076064 0.996617
0.023762 -0.023951 -0.010533 -0.016782 -0.013149 0.999773
-0.044734 -0.043390 -0.011979 -0.090518 -0.308832 -0.946800
-0.018132 -0.045393 0.008165 0.280654 -0.780392 0.558769
0.066283 0.084147 -0.005984 0.508223 -0.529003 0.679607
-0.052531 0.010035 0.010747 -0.189700 -0.864050 0.466295
-0.071916 0.016113 0.009462 0.037122 0.099185 -0.994376
0.047269 0.061062 -0.002811 0.333471 -0.296885 -0.894794
-0.035713 -0.039894 -0.009175 0.008655 0.641420 0.767141
0.029072 0.048352 0.009616 0.011095 -0.748186 -0.663396
0.036861 0.043134 -0.008602 0.561912 -0.494313 0.663256
-0.020989 -0.037350 -0.001407 -0.287898 0.854103 -0.433155
-0.079179 -0.004871 0.010797 0.536181 -0.325742 0.778718
0.066688 0.083235 -0.009749 -0.290093 0.368515 -0.883200
0.075831 -0.057675 0.002554 0.609377 0.188198 0.770221
-0.018066 0.006965 -0.015173 -0.951427 0.064787 -0.300981
-0.072654 0.022465 0.007119 -0.678559 0.715921 0.164365
0.082779 0.086601 0.006046 -0.567763 -0.703939 -0.426750
0.058471 0.072750 -0.008256 0.169336 -0.231930 0.957880
0.016742 0.036243 0.012354 -0.116487 0.110331 0.987045
0.059235 -0.048225 -0.013225 -0.106803 -0.202127 -0.973518
-0.023630 -0.023769 -0.009695 0.028203 -0.011420 0.999537
-0.012552 -0.032246 0.011956 0.009358 -0.023820 0.999672
-0.019273 0.027252 -0.001728 -0.387827 -0.910709 0.142124
-0.031412 -0.022687 -0.009448 -0.076118 0.491274 0.867673
0.062388 -0.037051 -0.012185 0.510855 0.852954 -0.107224
-0.103763 -0.010112 -0.014082 -0.528290 -0.167242 -0.832430
-0.016470 -0.042881 -0.010550 0.358227 -0.645300 -0.674730
-0.003135 0.025557 0.004216 0.162966 -0.986599 0.008056
-0.048811 0.037134 -0.010835 -0.233873 0.562806 -0.792813
-0.092296 -0.019789 -0.011374 -0.030579 -0.026518 -0.999181
-0.074327 -0.013529 0.011439 0.400339 0.898116 -0.181981
0.039216 0.058066 0.002024 0.522443 -0.492807 0.695841
0.073727 -0.043845 -0.012806 0.469068 0.762445 -0.445706
0.016864 -0.011283 0.009415 0.302989 0.755077 -0.581427
0.084577 0.085074 -0.006686 0.811049 -0.544911 -0.212772
0.009626 -0.021252 -0.002014 -0.148711 0.860057 -0.488043
-0.013745 0.033733 -0.011340 0.111751 0.485779 -0.866909
0.075454 -0.055526 -0.001245 0.290865 0.051960 -0.955352
-0.043786 0.014573 -0.010441 0.069812 -0.957934 0.278368
-0.037739 0.033444 -0.002536 0.322549 -0.894427 -0.309779
-0.056192 0.032027 -0.008274 0.429980 -0.724648 0.538519
0.068277 -0.060917 0.005139 -0.391013 -0.784962 0.480565
0.015624 0.023838 -0.012553 -0.005268 0.015495 -0.999866
-0.026864 0.027573 0.012400 -0.001696 -0.036572 0.999330
-0.013984 0.001368 -0.010336 -0.747756 0.177055 0.639932
0.008511 -0.016447 0.003198 -0.023830 0.381698 -0.923980
-0.008307 0.032115 0.011341 0.140239 0.587525 0.796961
-0.066268 -0.030759 -0.006893 0.263362 -0.676640 0.687604
0.066671 -0.048189 0.002388 0.344486 0.665735 0.661911
0.075318 -0.064097 0.005645 -0.391156 -0.764065 0.513032
0.006505 0.024642 0.009631 -0.104158 -0.177441 -0.978604
0.047174 0.064213 -0.008183 0.231154 -0.313282 0.921098
-0.085586 -0.018651 0.013424 0.002040 0.198086 0.980183
-0.076272 -0.001091 -0.012952 0.187501 -0.138948 -0.972387
-0.068565 -0.026536 -0.011669 -0.000092 0.022737 -0.999741
-0.008448 -0.001296 -0.006053 -0.895843 -0.438788 0.070220
0.051523 0.054883 -0.011952 0.191357 -0.211562 -0.958449
-0.047787 0.020336 0.012024 0.003602 -0.053634 0.998554
-0.083614 0.009309 -0.008104 0.697467 -0.012668 0.716505
-0.005937 -0.021658 -0.012700 -0.013141 0.027904 -0.999524
0.087207 -0.068267 -0.004882 0.129363 0.931334 0.340415
0.056627 0.071800 -0.010916 -0.170385 0.240436 -0.955594
0.037553 0.051181 0.012971 -0.030326 0.009408 0.999496
-0.038373 -0.045620 -0.005439 -0.187637 0.620745 -0.761228
0.072221 0.080262 -0.011050 -0.059612 0.090356 -0.994124
-0.003600 -0.026081 0.011970 0.008853 -0.010932 0.999901
-0.024585 -0.021982 0.011960 -0.122560 0.168829 0.977996
-0.048202 0.013308 -0.011631 -0.030178 -0.785807 -0.617736
0.098747 -0.069676 -0.002360 0.457382 -0.885130 -0.085711
-0.055903 -0.023941 0.009814 -0.032280 0.017905 -0.999318
0.071176 0.092032 0.002866 -0.023982 0.998414 -0.050940
-0.100326 -0.003396 0.004253 -0.745826 0.664749 0.043049
-0.062268 -0.038044 0.011309 -0.249566 -0.694475 0.674848
-0.087626 0.006265 0.011957 -0.177098 0.189930 0.965693
0.004461 0.011761 -0.009825 0.087722 -0.163319 0.982666
0.063880 0.080305 0.012310 -0.304367 0.348330 0.886581
-0.039962 0.030753 0.009444 0.110587 -0.499959 -0.858960
-0.057932 0.034560 0.005771 -0.460913 0.863566 0.204483
-0.039268 0.030191 -0.009220 0.138125 -0.132431 0.981521
-0.014521 0.036930 -0.007777 0.325784 0.876057 -0.355512
0.032282 0.046928 0.005350 -0.427817 -0.892393 -0.143552
-0.003236 0.029269 0.012249 0.055458 0.250841 0.966438
-0.022257 0.040628 0.004505 0.225187 0.813936 0.535536
0.003108 -0.004470 -0.005421 0.598178 -0.796596 -0.087287
-0.014753 -0.002514 0.014845 -0.990363 0.132594 -0.039992
-0.063534 -0.039371 0.005867 -0.397649 -0.911839 0.102098
0.030704 0.038882 0.012562 0.009559 -0.041171 0.999106
0.057877 0.076607 -0.009494 -0.367806 0.415363 -0.831981
0.068517 -0.048357 0.002005 0.257848 0.623422 0.738146
0.061620 -0.053821 0.009215 -0.262336 -0.510540 0.818858
-0.014759 0.011093 0.013675 -0.536826 0.578198 0.614414
0.056468 -0.034940 0.008921 0.337239 0.470387 -0.815479
-0.014860 -0.013387 0.009469 -0.008109 0.022479 -0.999714
0.075454 -0.055526 -0.001245 0.290865 0.051960 -0.955352
-0.026692 -0.026829 0.009448 0.002681 0.024398 -0.999699
0.076342 0.090497 0.008855 0.070266 0.821207 0.566288
0.015260 0.040260 0.010838 -0.359625 0.414926 0.835767
0.081160 -0.059730 0.007960 0.129222 0.271890 -0.953613
0.038854 0.038953 0.010534 0.639909 -0.647452 -0.413911
0.100473 -0.063954 -0.007077 -0.636073 0.553117 0.538026
0.003702 -0.024125 0.011914 0.013027 -0.019349 0.999728
-0.092242 -0.023475 0.012175 -0.404773 -0.808038 0.428059
0.004538 -0.003089 -0.017962 0.634181 -0.232455 -0.737414
0.051531 0.061597 0.013178 -0.003520 -0.015950 0.999867
-0.055309 0.016721 0.011870 0.024700 -0.063456 0.997679
-0.062804 -0.026965 -0.011669 -0.002881 0.028327 -0.999595
-0.017826 -0.021980 -0.009911 0.010757 -0.050543 0.998664
0.044487 0.052695 0.010265 -0.027003 0.055386 -0.998100
0.030341 -0.041905 -0.007491 -0.400620 -0.781251 -0.478696
0.010886 0.043207 0.002600 -0.634629 0.752123 0.177642
0.037891 -0.031865 -0.010644 0.011497 -0.015365 0.999816
-0.089058 0.008173 -0.000079 -0.687311 0.724018 0.058330
0.016611 -0.018823 -0.010572 0.077416 -0.025895 0.996663
0.055429 -0.033573 -0.012966 0.393652 0.652650 -0.647368
0.042333 -0.048601 -0.006148 -0.421461 -0.825359 -0.375705
-0.027981 -0.026980 -0.012236 -0.028991 0.017716 -0.999423
-0.009560 0.002045 0.000812 -0.989815 0.141338 0.017011
0.073533 -0.058711 -0.003052 0.472153 0.498947 -0.726721
0.084868 -0.063887 0.009864 -0.181471 -0.401401 0.897745
0.034097 0.042656 0.012692 0.040561 -0.036950 0.998494
0.045099 0.048265 0.012738 0.140330 -0.180246 0.973560
-0.067524 -0.037431 0.000197 -0.500176 -0.864826 -0.043592
-0.087591 -0.010607 0.013346 0.452618 0.520190 0.724250
-0.059004 -0.021455 -0.011517 0.048396 0.133934 -0.989808
0.000581 -0.038130 -0.001606 0.477153 -0.867141 -0.142794
0.005540 0.002156 -0.014272 0.992091 0.118754 0.040659
-0.001309 -0.036393 0.006865 0.275054 -0.846752 0.455364
-0.072000 0.023683 0.000606 -0.654029 0.755779 0.032323
0.055079 -0.038319 0.011364 -0.015597 -0.036374 0.999217
0.097429 -0.059662 0.010844 0.341254 0.359540 0.868491
-0.024097 -0.026978 -0.009719 0.069376 0.017814 0.997432
0.072306 0.089983 0.009227 -0.154100 0.806988 0.570108
-0.042753 -0.045141 -0.006263 0.248179 0.942532 -0.223696
-0.002908 0.018752 -0.009825 -0.022008 0.006190 0.999739
-0.081393 0.012080 -0.012562 -0.199710 0.316212 -0.927430
-0.042265 -0.026569 -0.011875 -0.020971 0.128167 -0.991531
0.030357 -0.021155 -0.010345 -0.004536 0.035974 0.999342
0.080623 -0.049177 -0.010738 0.185372 0.248236 0.950798
-0.081598 0.010056 0.009053 0.543306 -0.473025 -0.693589
0.096090 -0.057884 0.008793 0.416359 0.806995 -0.418814
-0.088928 0.008182 0.002075 -0.689644 0.723147 0.038069
-0.082926 -0.003397 0.011577 -0.060455 -0.180071 0.981794
-0.104275 -0.008896 -0.009408 -0.990234 0.138279 0.017759
0.061520 0.080318 0.007225 0.747510 -0.576571 -0.329841
0.017871 -0.018677 0.011826 0.018854 0.010612 0.999766
0.039971 0.059845 0.003576 0.683352 -0.697521 0.215625
0.017186 -0.010702 -0.011906 0.388526 0.875216 -0.288175
0.052862 0.070372 -0.005419 0.940890 -0.046651 -0.335483
0.044294 0.059451 0.001259 0.054225 -0.186702 0.980919
0.011483 0.032556 0.009802 0.329628 -0.248912 -0.910708
-0.021494 -0.019383 0.009519 -0.325356 0.505002 -0.799448
-0.103432 -0.011882 0.000585 -0.955856 -0.293359 -0.016762
0.021539 -0.014563 0.009024 0.331309 0.378970 -0.864069
-0.005515 -0.036154 0.010291 0.374150 -0.599296 0.707711
0.007046 -0.034179 0.005394 0.142592 -0.886279 0.440656
-0.082415 0.010919 -0.005588 0.548601 -0.752153 -0.365106
0.065236 -0.039462 0.009338 0.431254 0.811469 -0.394383
-0.013545 -0.032296 -0.009336 -0.848172 0.229588 0.477382
0.018384 0.035960 -0.012141 -0.035877 0.080501 -0.996109
0.007131 -0.006188 -0.010874 0.684051 0.607478 0.403787
0.024663 0.044346 -0.011574 -0.170819 0.229541 -0.958192
0.036296 0.046000 -0.008594 0.749413 0.161145 0.642194
-0.067005 -0.035109 0.012065 -0.184366 -0.496760 0.848079
0.034780 0.047902 0.002848 0.738399 -0.665518 0.108867
-0.022450 0.042499 0.000904 0.261645 0.963429 0.057848
-0.026662 -0.022446 0.011996 -0.099938 0.311728 0.944901
-0.021123 0.041165 -0.003131 0.106658 0.887521 -0.448253
-0.035035 -0.023485 0.009651 -0.049794 0.589703 -0.806084
0.011898 0.028545 -0.001683 0.126604 -0.600130 0.789820
-0.015217 0.001625 -0.012749 -0.830417 -0.128914 0.542023
0.070858 -0.063852 -0.001912 -0.445435 -0.894232 -0.044004
0.046533 -0.034559 -0.013196 0.003452 0.023034 -0.999729
-0.079733 -0.027018 0.007436 0.481364 0.396016 0.781959
-0.086353 -0.016789 0.012054 0.108082 0.851136 0.513699
-0.072260 -0.001984 0.010583 0.473736 -0.668185 0.573675
0.008152 -0.035396 -0.002303 0.090282 -0.980171 -0.176391
-0.043734 -0.048708 0.002572 -0.325913 -0.933095 0.152034
-0.086184 -0.002933 -0.007913 0.814224 -0.512505 -0.272723
-0.015014 -0.008013 0.009858 -0.342372 0.413877 -0.843497
-0.045143 -0.046830 0.008747 -0.277870 -0.896854 0.344152
-0.062699 0.017193 0.009388 -0.029705 0.038932 -0.998800
0.005917 0.008670 0.012228 0.780970 -0.624527 0.007199
0.000005 0.008507 0.017027 0.144545 0.122785 0.981851
-0.082374 0.002447 0.003582 0.903896 -0.158242 -0.397407
0.042927 -0.039860 -0.007707 0.927486 -0.069830 0.367278
0.062919 -0.059948 -0.000503 -0.449715 -0.892567 0.032884
-0.046309 0.022843 0.012148 0.006849 -0.058915 0.998240
0.093582 -0.068100 0.000771 -0.242749 0.957792 -0.153971
-0.008037 0.028956 -0.009644 0.063093 -0.342160 0.937521
-0.064603 0.026524 0.011266 -0.402712 0.460516 0.791043
-0.038742 0.043448 -0.003038 -0.213929 0.930510 -0.297297
-0.000937 0.013991 0.015023 0.208366 0.847488 0.488209
-0.055544 0.024181 -0.012052 0.006323 0.027765 -0.999594
-0.084019 0.000557 0.011622 0.007413 -0.041195 0.999124
0.040140 -0.027788 -0.013054 -0.021082 0.024478 -0.999478
-0.014143 0.031391 0.012492 0.064874 0.217156 0.973979
-0.048910 -0.022964 0.009803 -0.200501 0.359429 -0.911378
-0.008987 -0.022524 -0.009865 0.061487 -0.001966 0.998106
-0.016075 -0.009828 0.011510 -0.943381 0.291451 -0.158396
-0.040920 -0.042004 0.009333 -0.037888 0.701303 -0.711856
0.028313 0.049037 0.011940 -0.250703 0.285788 0.924918
0.010809 -0.035510 0.000620 -0.045960 -0.992839 0.110270
0.037262 0.063974 0.007031 -0.579651 0.682485 0.445218
0.022661 -0.013860 -0.011174 0.444572 0.894016 0.055602
-0.020297 -0.047243 0.004664 0.070209 -0.907945 0.413168
0.031173 0.042993 0.010147 -0.032739 0.020400 -0.999256
-0.026020 0.042703 0.004226 0.269216 0.878425 0.394832
0.000638 -0.008287 0.006259 0.618305 -0.098716 -0.779714
0.012826 -0.020008 -0.010250 -0.114074 0.319582 0.940667
0.072952 -0.051801 0.011094 -0.015295 -0.042917 0.998962
-0.008130 -0.006201 0.017486 -0.006444 -0.019286 0.999793
-0.028834 0.015524 0.011890 -0.313853 -0.197240 0.928759
0.055578 -0.049614 -0.009123 0.286014 0.574669 0.766780
0.000530 0.008593 0.000726 0.232407 0.970369 0.066121
0.002024 -0.013077 0.016198 0.343638 -0.713556 0.610533
0.026519 0.029500 0.009559 0.161404 -0.036101 -0.986228
-0.016670 0.013473 -0.010032 -0.002678 -0.011436 0.999931
-0.059492 -0.024874 -0.011597 -0.003344 0.034744 -0.999391
0.004168 -0.015562 0.003584 -0.067402 0.344011 -0.936543
0.068969 -0.042915 -0.010834 0.249069 0.271968 0.929515
-0.059102 -0.028327 -0.008021 0.131582 0.354056 0.925921
-0.071208 0.014572 0.012027 0.017058 -0.044789 0.998851
0.058326 0.059528 -0.009678 0.617254 -0.658931 0.429892
-0.091490 0.005497 -0.003411 -0.961319 0.261027 0.087925
-0.036125 -0.039858 0.000211 -0.102515 0.994719 0.005063
-0.097365 -0.020338 -0.007032 -0.650424 -0.759570 0.001369
0.029698 0.037649 -0.000707 0.557390 -0.694902 0.454344
0.019730 -0.012705 -0.010386 0.422719 0.614197 0.666386
-0.003597 -0.023470 -0.012753 -0.010620 0.002537 -0.999940
0.047536 0.073550 0.005651 -0.610444 0.713412 0.344093
0.001257 -0.035564 0.005920 0.385756 -0.783473 0.487198
-0.075720 0.014847 -0.005274 0.929102 0.196583 -0.313248
0.000605 -0.021680 -0.012755 -0.003793 0.010677 -0.999936
-0.011489 -0.026334 -0.012660 -0.020733 0.008796 -0.999746
0.001789 0.005805 -0.007584 0.763122 0.635926 -0.115083
-0.008870 0.003480 -0.005366 -0.894557 0.446660 -0.016203
-0.059481 -0.036125 -0.011934 -0.091852 -0.172984 -0.980632
0.032569 0.035039 0.012394 0.247091 -0.296236 0.922600
-0.063409 -0.026392 0.010115 -0.012494 0.000375 -0.999922
-0.038120 -0.041647 -0.006529 -0.992347 0.118770 -0.033792
0.046115 -0.037620 -0.013231 -0.026092 -0.009156 -0.999618
0.025073 -0.027955 0.004043 0.407554 0.411132 0.815396
-0.080738 -0.023874 0.013074 0.007270 -0.023271 0.999703
0.039504 0.045472 -0.009674 0.012427 -0.080785 0.996654
0.034266 0.046030 -0.004595 0.047579 -0.937695 0.344186
-0.024097 -0.026978 -0.009719 0.069376 0.017814 0.997432
-0.067298 0.020510 0.006211 0.593335 -0.760253 0.264518
0.102367 -0.062067 0.002837 -0.303282 0.946536 -0.109956
0.057026 0.068232 0.002086 0.467412 -0.446153 0.763200
0.040867 -0.037688 -0.013231 -0.057631 -0.107519 -0.992531
0.076403 -0.045412 -0.011599 0.396214 0.813860 0.425026
-0.066315 0.018409 -0.008455 0.135323 0.350847 0.926604
-0.068654 0.013081 -0.007181 0.137135 -0.099437 0.985549
-0.008448 -0.001296 -0.006053 -0.895843 -0.438788 0.070220
-0.028282 0.043616 0.003156 0.129633 0.947681 0.291713
0.029052 0.037902 -0.003197 0.428231 -0.418769 -0.800781
0.085617 -0.065695 0.005821 0.324609 0.720502 -0.612786
0.037106 -0.026656 0.009045 0.013827 0.041114 -0.999059
-0.070946 -0.017107 0.010169 0.143527 0.203093 -0.968583
-0.016558 0.028584 0.012439 0.009149 -0.019063 0.999776
0.056008 -0.043695 -0.010943 0.028918 0.039739 0.998792
-0.013086 -0.029059 -0.008298 -0.753915 0.298852 0.585064
-0.065845 0.011937 0.011834 0.023709 -0.052660 0.998331
-0.027021 -0.049035 -0.007142 0.010716 -0.913104 -0.407587
-0.020293 -0.048751 -0.003341 0.198906 -0.920358 -0.336715
0.046582 0.066729 -0.005341 0.398638 -0.807298 -0.435152
-0.005820 0.031902 0.011010 0.107377 0.624872 0.773308
-0.034925 -0.022973 0.010779 0.196839 0.954586 0.223652
-0.016610 0.005595 -0.010240 -0.020654 -0.570175 0.821264
-0.006173 0.007131 -0.006000 -0.562255 0.779836 0.275181
0.015744 0.030238 -0.001248 0.001092 -0.254269 0.967133
-0.011445 0.004464 0.009346 0.001481 0.023258 -0.999728
-0.032916 0.024202 0.012239 -0.007654 -0.048083 0.998814
0.054080 -0.034335 0.011602 0.187001 0.438698 0.878962
0.019022 -0.031504 -0.008876 0.480781 0.707174 0.518415
0.079113 0.091678 0.005010 0.206694 0.943880 0.257622
-0.030828 -0.048833 0.007201 0.115849 -0.937356 0.328546
-0.048243 0.024029 0.009507 -0.009382 0.028037 -0.999563
-0.035524 0.043971 -0.002337 0.048839 0.968405 -0.244553
0.063555 -0.044928 -0.013454 -0.000316 0.012926 -0.999916
-0.063683 0.010955 -0.009181 0.126882 -0.139962 0.981994
-0.082771 -0.021158 0.013173 0.027877 -0.029789 0.999167
-0.088931 -0.002620 -0.013056 0.241755 -0.469727 -0.849065
0.017425 0.047654 -0.005065 -0.589546 0.706114 -0.392223
0.006445 -0.018285 0.002635 -0.000907 0.509119 -0.860695
-0.051450 -0.025267 0.012302 0.053299 0.041139 0.997731
0.078160 0.084819 0.009831 -0.171877 -0.468980 -0.866323
0.078511 0.084260 -0.010739 0.115787 0.274882 -0.954480
0.035099 0.047582 0.010107 0.652735 0.234347 -0.720430
0.013946 0.046132 0.000631 -0.644295 0.764231 0.028902
-0.041830 -0.049033 -0.004085 -0.206592 -0.954018 -0.217184
-0.010706 -0.001936 -0.010196 -0.328101 -0.086065 0.940714
0.074251 0.083458 -0.010850 -0.056661 0.183082 -0.981463
-0.054771 0.020240 -0.012132 0.009936 0.019567 -0.999759
0.015069 -0.017673 -0.010182 0.037072 -0.004038 0.999304
-0.017980 0.006441 0.009364 -0.562785 -0.274660 -0.779638
-0.036730 -0.028912 0.009490 -0.023749 -0.027605 -0.999337
-0.050167 0.027009 0.009606 0.032519 0.012772 -0.999389
-0.046240 0.042030 -0.000076 -0.360529 0.930710 -0.061623
-0.015401 -0.020057 -0.009968 -0.011571 -0.009136 0.999891
0.082023 -0.051555 0.008453 0.071733 0.219931 -0.972875
-0.016167 0.034931 0.010904 0.229497 0.611264 0.757421
-0.056464 0.030388 0.012424 -0.167712 0.223927 0.960067
0.035888 0.054116 0.012540 -0.215171 0.220751 0.951299
-0.005285 -0.021963 0.012021 0.010241 -0.001894 0.999946
0.060798 -0.055040 -0.010238 -0.327585 -0.634372 -0.700186
-0.042588 0.017716 0.009319 0.041021 0.069961 -0.996706
-0.003568 -0.007828 0.005120 -0.395274 -0.758308 -0.518389
0.094931 -0.061890 0.010710 0.088662 -0.222194 0.970963
-0.025661 0.035092 -0.009282 -0.445972 -0.284106 0.848760
-0.039600 0.018792 -0.012112 0.009341 -0.050019 -0.998705
-0.071411 0.000894 -0.010771 0.702656 -0.665095 0.252832
0.056846 -0.041764 -0.013398 -0.003576 0.014068 -0.999895
-0.041813 -0.028362 -0.009441 0.025182 -0.029397 0.999251
-0.092242 -0.023475 0.012175 -0.404773 -0.808038 0.428059
-0.097179 -0.000046 0.007561 -0.663218 0.747293 0.041180
0.005796 0.008448 0.016546 0.773041 -0.150566 0.616228
-0.069147 -0.028382 0.005278 0.735090 0.579580 0.351753
0.047827 -0.038524 -0.010660 0.079395 -0.002040 0.996841
0.003564 0.026437 0.000928 0.152855 -0.981095 0.118696
0.098093 -0.066245 -0.003625 -0.423954 0.894845 0.139700
0.053652 0.073522 -0.004821 0.825680 -0.520747 -0.216967
0.029515 0.047620 -0.008083 -0.295615 -0.884872 0.360019
0.025832 -0.023912 0.011733 0.020915 -0.010397 0.999727
0.048177 -0.029270 0.010637 0.440200 0.862079 0.251084
-0.089058 0.008173 -0.000079 -0.687311 0.724018 0.058330
0.025693 -0.022652 0.009225 -0.032556 0.004150 -0.999461
-0.042570 -0.029846 0.012156 0.014880 0.007577 0.999861
-0.010846 0.003917 -0.010192 -0.215654 0.218304 0.951755
0.051757 0.066778 -0.011148 -0.121016 0.163921 -0.979023
0.040205 -0.024020 -0.011711 0.485973 0.867979 -0.102189
0.001312 0.009114 0.015990 0.150523 -0.085054 0.984941
0.028962 0.030579 -0.010190 0.552104 -0.631092 0.544889
-0.044716 -0.047138 -0.005135 -0.363832 -0.907776 -0.208730
0.078686 0.084841 0.012748 0.166602 0.349558 0.921983
-0.042199 -0.028111 0.009505 0.004981 0.048582 -0.998807
-0.015482 -0.005870 -0.013161 -0.801612 0.323858 -0.502528
0.003542 0.033317 0.010275 -0.175792 0.605650 0.776070
0.015795 -0.017850 -0.012825 -0.009296 0.025063 -0.999643
0.034741 -0.035764 -0.012999 -0.100482 -0.164811 -0.981193
0.037617 -0.038783 -0.009950 0.126544 0.372991 0.919165
0.069752 0.079764 0.013594 -0.050814 0.045632 0.997665
0.068841 -0.047984 -0.013538 -0.011576 0.011253 -0.999870
-0.065865 0.008089 -0.009931 0.014634 -0.186017 0.982438
-0.015221 -0.038809 -0.006046 -0.743050 0.384109 -0.548031
-0.038833 0.041224 -0.008303 -0.136662 0.875430 -0.463622
0.045532 -0.031482 0.008280 0.191056 0.761829 -0.618962
-0.066489 -0.018430 -0.011393 0.134723 0.249627 -0.958925
-0.017006 -0.011539 -0.012142 -0.870132 0.200947 -0.449989
-0.007470 -0.009140 -0.016045 -0.184454 -0.440701 -0.878498
-0.010059 0.026250 -0.009641 0.018009 -0.033191 0.999287
-0.098626 -0.016625 0.013485 0.043983 -0.242601 0.969129
0.000122 0.028233 -0.007491 -0.652514 -0.716817 -0.245764
0.103508 -0.064488 0.004726 0.758770 -0.501988 0.415061
0.022577 -0.037547 -0.008015 -0.387026 -0.745304 -0.542893
-0.065021 -0.017232 -0.010057 -0.105643 0.808464 -0.578987
0.035929 0.045479 -0.002769 0.402486 -0.353261 -0.844519
0.006096 0.008729 0.015088 0.935542 -0.297337 0.190662
0.005194 0.028522 0.012302 -0.017035 0.087356 0.996032
0.080903 0.085425 0.008364 -0.396403 -0.574967 -0.715736
0.086309 0.087263 0.006689 0.796249 0.484327 0.362511
-0.003581 -0.038150 -0.005490 0.356237 -0.785234 -0.506462
0.018437 0.040130 0.011906 -0.217721 0.241397 0.945687
0.065545 -0.045524 -0.011040 -0.336837 0.124959 0.933234
-0.075231 0.003063 -0.012848 0.009546 0.030053 -0.999503
-0.000369 0.025620 -0.009544 -0.192407 -0.073334 0.978571
-0.034648 0.015515 0.010263 0.151831 -0.962953 -0.222863
0.011341 0.028093 0.012278 -0.014560 -0.014681 0.999786
0.028609 -0.032435 -0.002170 0.166172 0.512278 -0.842590
0.009294 -0.031834 -0.009665 0.004765 -0.770440 -0.637494
0.086711 0.087560 -0.002098 0.929893 0.265013 -0.255084
0.034711 -0.029989 0.011566 -0.000193 -0.018243 0.999834
0.054808 0.059130 0.010367 -0.123714 -0.330875 -0.935530
-0.014666 0.028228 -0.012213 -0.008312 0.047329 -0.998845
-0.045812 -0.023764 -0.009199 0.059599 0.325509 0.943659
-0.052603 0.031734 -0.009477 0.124527 -0.170044 0.977537
-0.057297 0.021864 -0.009420 -0.041181 0.003590 0.999145
0.062789 0.083491 -0.002832 0.648795 -0.723917 0.234540
-0.040257 -0.048316 -0.007286 -0.126143 -0.942780 -0.308631
0.076566 0.083543 0.013372 0.052655 0.192794 0.979825
-0.065652 0.014884 -0.012383 0.012012 0.029321 -0.999498
-0.079608 0.016884 -0.004848 -0.737201 0.672811 -0.062125
-0.062269 -0.036588 -0.004446 0.381055 0.782553 -0.492349
-0.088087 -0.025619 0.002366 -0.917721 -0.395544 0.036503
0.007557 0.011559 -0.012574 0.885138 -0.442501 -0.143960
-0.066290 -0.033395 -0.003396 0.484064 0.350690 -0.801685
-0.048531 0.015897 -0.009555 0.059806 -0.128148 0.989950
-0.051601 -0.020317 0.010041 0.036939 0.716497 -0.696611
0.006396 0.011240 -0.014986 0.832966 0.147465 -0.533312
-0.008541 0.030081 -0.008201 0.181738 -0.983347 -0.000789
0.061480 0.081466 -0.001305 0.956168 -0.235799 -0.173614
0.044305 0.063986 0.007865 0.627992 -0.741215 -0.237119
-0.006705 -0.008645 -0.010041 -0.057489 -0.160403 0.985376
-0.050735 -0.027879 -0.009173 0.085394 0.019819 0.996150
-0.046146 0.034820 -0.011682 -0.076614 0.134584 -0.987936
-0.078104 -0.019023 -0.008774 0.006072 0.042289 0.999087
0.049825 -0.031947 -0.013222 0.063433 0.169778 -0.983439
-0.064162 0.030232 0.003091 -0.593934 0.790346 0.150318
-0.037077 0.029761 -0.009134 0.006141 -0.056565 0.998380
-0.023285 -0.040418 -0.004883 0.024603 0.764912 -0.643664
-0.056222 -0.020433 -0.009021 0.030895 0.296316 0.954590
0.003801 -0.004208 -0.001320 0.737959 -0.670881 -0.073040
0.006438 0.024048 -0.008224 0.482711 -0.679145 0.552949
0.081829 -0.058568 -0.013618 -0.046823 -0.140477 -0.988976
-0.035469 0.038914 0.011711 0.025879 0.605012 0.795796
0.052646 0.071326 -0.007099 0.835005 -0.276027 0.476000
0.005341 -0.001335 -0.009621 0.817939 -0.294891 0.493980
-0.068869 -0.016747 -0.011086 0.057613 0.384138 -0.921477
-0.008580 -0.028636 -0.012714 -0.013409 0.000806 -0.999910
0.010096 -0.024528 -0.008378 -0.493201 0.855949 0.155258
-0.071111 0.018574 0.006336 0.468457 -0.757328 0.454975
0.011262 0.024259 -0.004333 -0.820628 0.369127 -0.436251
0.027609 0.035519 0.012442 0.039493 -0.032049 0.998706
-0.082926 -0.003397 0.011577 -0.060455 -0.180071 0.981794
0.073422 -0.057363 0.007354 0.423311 0.734703 -0.530113
0.037521 -0.028054 -0.013039 0.001729 0.011733 -0.999930
0.057444 -0.049678 -0.012476 -0.189171 -0.376551 -0.906876
-0.083884 0.004629 -0.001204 0.613171 -0.669169 -0.419803
-0.076032 -0.013055 -0.009052 -0.211249 0.812795 0.542898
-0.077251 0.008700 -0.012712 -0.002247 0.033360 -0.999441
-0.042905 -0.038657 0.012190 0.017366 -0.010017 0.999799
0.036531 0.053698 -0.011439 -0.082414 0.144720 -0.986035
0.026078 0.034661 0.012465 0.001030 -0.043086 0.999071
0.020037 0.036601 0.009935 0.024126 -0.015018 -0.999596
-0.061645 -0.033906 0.012619 0.004340 -0.052429 0.998615
0.062786 0.082819 0.010456 -0.460301 0.531790 0.710860
-0.032518 0.027496 0.009768 0.006768 0.038233 -0.999246
0.010426 -0.020220 0.000507 0.032127 0.840027 -0.541592
0.078224 -0.046678 -0.013074 0.451577 0.573857 -0.683203
-0.046044 0.026963 -0.011972 -0.001191 0.022699 -0.999742
-0.014003 0.014210 0.009528 -0.013597 0.002973 -0.999903
-0.079358 -0.030953 0.007592 -0.432538 -0.900923 0.035342
-0.038449 0.035320 -0.006952 0.949835 -0.301561 -0.082908
-0.082961 0.003906 -0.004901 0.450340 0.076956 0.889535
-0.041758 -0.023587 -0.009773 0.376489 0.798454 0.469816
0.061999 -0.046291 0.008627 0.035275 0.084350 -0.995812
0.066566 -0.049838 -0.004789 0.258822 0.712451 0.652246
-0.004604 -0.038751 0.004721 0.510277 -0.739615 0.438848
-0.004018 0.017124 0.011910 0.040607 0.268941 0.962300
-0.085397 -0.012764 0.005137 0.872324 0.443448 0.205923
0.014539 0.016508 0.011844 0.360994 -0.488089 0.794640
0.055882 0.076922 0.010339 -0.459050 0.530463 0.712659
0.003338 0.036215 0.006813 -0.307565 0.799365 0.516158
-0.076159 -0.014079 -0.011043 0.055072 0.479418 -0.875857
0.098093 -0.066245 -0.003625 -0.423954 0.894845 0.139700
0.036850 0.040917 -0.009758 0.111776 -0.121197 0.986315
-0.077144 -0.024637 -0.011563 -0.006789 0.011579 -0.999910
-0.007270 -0.027424 -0.010069 0.013598 0.116815 0.993061
0.034528 -0.021707 0.011172 0.443678 0.673360 0.591385
0.051765 -0.032532 -0.010523 0.098523 0.141321 0.985049
0.040043 -0.047004 -0.006988 -0.401693 -0.804507 -0.437505
-0.098163 -0.001169 0.010819 -0.647565 0.656756 0.386434
0.104885 -0.063878 0.002672 0.947828 -0.199210 0.248873
0.013459 0.031427 0.000188 0.447550 -0.633569 0.631101
-0.050268 -0.035790 -0.012046 -0.014089 0.024705 -0.999596
-0.006179 -0.027124 -0.003795 0.057509 0.828755 -0.556649
-0.064162 -0.034995 0.007246 0.422973 0.838934 0.342467
0.046284 -0.033211 0.006613 0.855405 0.213730 -0.471807
0.000031 -0.006374 -0.001473 0.051803 -0.992171 -0.113637
0.017907 -0.023570 0.011794 0.005498 -0.021542 0.999753
-0.058260 -0.037243 -0.009280 0.113221 0.366633 0.923451
-0.064667 -0.038908 0.002576 -0.475443 -0.878550 0.045867
0.042612 0.056871 0.001043 0.200359 -0.095640 0.975043
0.004168 -0.015562 0.003584 -0.067402 0.344011 -0.936543
-0.008541 0.030081 -0.008201 0.181738 -0.983347 -0.000789
-0.066284 0.022392 0.009557 0.463541 -0.570480 -0.677999
0.070210 -0.045286 -0.010918 0.141969 0.003903 0.989863
0.076342 0.090497 0.008855 0.070266 0.821207 0.566288
-0.082829 -0.028835 -0.004664 -0.491563 -0.870177 -0.034025
-0.003081 0.025573 0.008960 0.327157 -0.759173 -0.562694
0.037475 0.055663 0.009927 0.371546 -0.399457 -0.838086
-0.057531 -0.022406 -0.008958 0.004551 -0.037885 0.999272
-0.016075 -0.009828 0.011510 -0.943381 0.291451 -0.158396
-0.093282 0.003314 0.008987 -0.679419 0.723547 0.121943
0.050957 0.069627 0.011856 -0.310024 0.377759 0.872458
-0.079556 0.011517 0.009344 0.254003 -0.568828 -0.782251
-0.065292 -0.025609 -0.011621 0.000318 0.025515 -0.999674
0.090974 -0.064274 0.007538 0.009468 0.412322 -0.910989
-0.001843 0.010254 0.016181 -0.063762 -0.065038 0.995844
-0.019936 -0.017747 0.009646 -0.510793 0.424118 -0.747807
-0.077242 -0.028360 0.009424 0.289151 0.951294 -0.106923
0.039076 0.046769 -0.000846 0.743825 -0.667928 -0.024422
-0.061678 0.031389 0.004655 -0.670696 0.715217 0.196550
-0.065761 -0.030762 0.010058 0.028071 0.005521 -0.999591
0.061451 0.080103 -0.009245 -0.353803 0.466270 -0.810812
0.058686 0.079435 -0.008220 -0.464262 0.527511 -0.711472
-0.080635 -0.019724 0.013152 0.021767 -0.014166 0.999663
-0.046893 -0.026958 -0.009314 -0.004428 -0.031027 0.999509
0.042443 -0.033353 0.002628 0.253039 0.539555 0.803027
-0.084048 0.008491 -0.003944 0.535692 -0.646367 -0.543363
0.067782 -0.052865 0.002646 0.708626 0.434606 0.555848
0.046582 0.066729 -0.005341 0.398638 -0.807298 -0.435152
-0.026820 -0.035011 -0.012415 -0.017435 0.011422 -0.999783
0.055518 -0.046670 -0.010494 0.124395 0.250710 0.960037
0.003174 0.006901 -0.013061 0.554179 0.323023 0.767165
0.036139 0.046640 -0.011965 -0.013632 0.043668 -0.998953
0.021937 -0.015495 -0.009954 0.117268 0.096091 0.988441
-0.100901 -0.010962 -0.013770 0.100762 -0.676008 -0.729973
-0.076699 -0.019949 -0.000777 0.593279 0.778006 -0.206703
-0.050068 -0.022047 -0.010714 0.223117 0.536729 -0.813721
-0.026892 0.030001 0.006323 -0.607419 -0.786729 -0.109999
0.067900 0.088155 -0.002133 0.448581 -0.885613 0.120266
-0.054967 0.009325 -0.012124 0.391432 -0.589904 -0.706254
-0.079169 -0.012542 0.011091 -0.138655 0.870893 -0.471509
-0.104326 -0.009860 0.003061 -0.998580 0.038805 -0.036487
0.006283 -0.004956 -0.011930 0.865540 0.480877 -0.139993
0.070534 -0.061502 0.006033 -0.389339 -0.735300 0.554751
0.042743 0.055497 0.001026 0.011032 0.006578 0.999918
0.042571 0.055937 0.013095 -0.036193 0.043631 0.998392
0.015606 -0.017115 0.003457 0.419444 0.907735 -0.009154
0.014863 -0.021042 -0.008066 0.041876 0.878978 0.475019
0.078942 -0.057956 0.000769 0.170479 -0.979651 -0.105927
-0.001445 -0.019125 -0.010063 0.010108 0.062907 0.997968
-0.093077 -0.022767 -0.007559 -0.493417 -0.866490 -0.075732
-0.070108 -0.026685 0.004332 0.686480 0.656880 0.311855
-0.001427 0.006198 -0.018026 -0.244141 -0.358454 -0.901058
-0.044499 0.024832 -0.009210 0.052138 -0.042162 0.997749
0.079742 0.084491 -0.007533 -0.321549 -0.510182 0.797697
-0.013704 0.006451 -0.013038 0.339083 -0.104102 0.934979
0.037536 0.047889 0.012824 0.011608 -0.045806 0.998883
0.065407 -0.050094 -0.009706 -0.791290 0.253512 0.556410
0.054189 -0.039046 -0.010555 0.004689 -0.041532 0.999126
-0.015004 -0.012166 0.012822 -0.603308 -0.352911 0.715174
0.031255 0.037747 -0.009744 0.026761 -0.018299 0.999474
-0.072473 -0.002261 0.009024 0.273255 -0.808155 -0.521745
-0.040257 -0.048316 -0.007286 -0.126143 -0.942780 -0.308631
-0.001309 -0.036393 0.006865 0.275054 -0.846752 0.455364
-0.042650 0.018133 -0.012073 0.023125 -0.123118 -0.992123
0.033748 0.051559 0.009741 0.739998 0.029886 -0.671945
-0.077251 0.008700 -0.012712 -0.002247 0.033360 -0.999441
-0.015221 -0.007109 0.012839 -0.886028 0.397777 -0.238174
0.020857 0.030307 0.012312 0.023052 -0.052244 0.998368
-0.023693 0.027856 0.006352 -0.398533 -0.868769 -0.293958
0.010053 0.029769 0.002127 0.592161 -0.743478 0.310784
-0.004371 -0.031854 -0.009905 0.309652 0.609489 0.729821
0.021548 0.038243 -0.012072 -0.034324 0.074469 -0.996632
-0.040976 -0.032473 -0.012071 -0.019278 0.033683 -0.999247
0.015250 -0.020398 -0.010504 0.134112 0.511690 0.848638
-0.015701 0.004179 0.009250 -0.125719 -0.010542 -0.992010
0.052073 0.064634 -0.003626 0.007534 -0.991499 0.129897
0.010752 0.040285 0.007815 -0.546514 0.615071 0.568340
0.043734 -0.043551 -0.006525 0.794565 0.427688 -0.430986
0.013397 -0.017040 0.002168 0.119591 0.665416 -0.736830
0.084500 -0.054289 0.011076 -0.003138 -0.006343 0.999975
0.040685 -0.037463 0.008145 -0.070936 0.878092 -0.473204
0.004668 0.009361 -0.010492 0.136332 -0.685825 0.714883
-0.082587 -0.001000 0.005839 0.796139 -0.411587 -0.443576
-0.068565 -0.026536 -0.011669 -0.000092 0.022737 -0.999741
0.086918 0.088106 0.000484 0.921759 0.376126 -0.094283
-0.048172 0.041163 0.001745 -0.421820 0.897255 0.130389
-0.007472 0.004607 -0.016209 0.139321 -0.739206 -0.658911
-0.062885 -0.029105 -0.006587 0.214814 0.119588 0.969306
-0.001640 -0.030903 -0.009819 -0.199255 0.524884 0.827523
0.021927 -0.027758 0.008517 0.451698 0.697698 -0.556046
-0.029371 -0.038841 0.003231 -0.207216 0.976123 0.065150
0.056500 0.058622 0.012979 0.196278 -0.135652 0.971120
-0.056442 0.014494 -0.012247 0.018759 0.017812 -0.999665
-0.088336 -0.003170 -0.009647 0.610842 -0.697228 -0.375161
0.090294 -0.069005 -0.002155 -0.106115 0.994088 0.022998
-0.059149 -0.033478 0.012560 0.024391 -0.025498 0.999377
-0.073888 -0.018722 0.013029 0.031061 0.017552 0.999363
-0.040765 0.031866 0.005857 0.096050 -0.995056 -0.025255
-0.008750 0.026394 -0.001589 -0.004804 -0.949781 -0.312879
-0.093008 -0.007625 0.009974 0.480081 0.604007 0.636159
-0.044952 0.013717 0.009762 -0.296249 -0.870104 -0.393899
0.014109 0.036034 -0.011726 -0.198166 0.224689 -0.954068
0.067436 -0.041336 -0.010706 0.284846 0.446734 0.848111
0.000914 0.012133 0.009367 -0.024597 0.044415 -0.998710
-0.067040 0.001985 0.009896 0.094128 -0.992351 -0.079871
-0.028640 -0.020965 -0.011206 -0.613158 0.700721 -0.364729
0.082643 0.088031 0.009300 0.393404 0.674486 0.624742
0.071932 -0.049403 -0.013565 0.000751 0.009115 -0.999958
-0.040976 -0.032473 -0.012071 -0.019278 0.033683 -0.999247
0.010096 -0.024528 -0.008378 -0.493201 0.855949 0.155258
0.030654 -0.031954 0.008863 0.255269 0.566590 -0.783463
0.008652 0.018176 -0.012559 -0.017239 0.002604 -0.999848
-0.069230 -0.020979 -0.008729 -0.038072 0.036309 0.998615
0.070797 0.081420 0.010968 0.090676 -0.142433 -0.985642
-0.097610 -0.001291 -0.000860 -0.384071 0.923074 0.020587
-0.099338 -0.017407 -0.009757 -0.658225 -0.750412 -0.060190
-0.016667 0.003427 -0.014565 -0.882559 -0.439143 0.168056
-0.093760 -0.003390 -0.013169 0.013067 -0.022116 -0.999670
-0.016175 -0.008336 -0.013254 -0.980795 0.194813 0.009424
-0.037973 -0.042999 -0.006104 -0.904644 -0.150370 -0.398759
0.011744 0.029657 0.009839 0.253207 0.091401 -0.963085
-0.047273 -0.032739 -0.009220 0.057196 0.045294 0.997335
0.066697 0.065947 0.011892 0.643578 -0.732819 0.220869
-0.003126 0.020250 0.009479 -0.018468 0.044543 -0.998837
-0.036470 -0.026197 0.011990 -0.044749 0.221198 0.974202
-0.051601 -0.020317 0.010041 0.036939 0.716497 -0.696611
-0.066674 0.006823 -0.012583 0.074629 -0.074644 -0.994414
0.043290 0.052483 -0.001961 0.372935 -0.430544 -0.821920
0.015899 -0.036571 -0.000145 -0.328959 -0.943404 0.042122
0.004327 0.002613 -0.008209 0.940788 0.329228 -0.080789
-0.077246 -0.031728 0.009933 -0.391426 -0.900353 0.190131
-0.073671 -0.001507 -0.010772 -0.005230 -0.920056 0.391752
0.083255 0.088866 0.007355 0.439240 0.772919 0.457891
-0.084473 -0.026366 -0.011379 -0.237423 -0.465790 -0.852449
0.023575 0.035548 0.009890 -0.003071 0.046721 -0.998903
-0.017341 -0.018053 -0.009799 0.009518 -0.015473 0.999835
-0.064728 0.028681 -0.009016 -0.562701 0.717145 -0.411182
0.029220 0.044660 -0.009285 0.098972 -0.233920 0.967205
0.097969 -0.067181 -0.001335 -0.413221 0.896799 0.158111
0.005737 -0.003553 -0.010218 0.760998 0.225124 0.608442
-0.015137 -0.039187 -0.009913 -0.472280 0.332199 0.816453
0.023829 -0.030945 -0.010298 0.120824 0.267104 0.956063
-0.091490 0.005497 -0.003411 -0.961319 0.261027 0.087925
-0.055544 0.024181 -0.012052 0.006323 0.027765 -0.999594
-0.004817 -0.006400 0.003506 -0.485910 -0.841568 -0.235910
-0.093792 -0.000872 0.002057 0.180135 0.974714 -0.132226
0.042437 -0.040875 0.010881 -0.112973 -0.278345 0.953814
-0.062835 0.017074 0.012035 0.014145 -0.051105 0.998593
0.069164 0.081714 -0.010707 -0.130449 0.189270 -0.973221
-0.009331 -0.000031 -0.015933 0.561922 0.149146 -0.813633
-0.000932 -0.032679 -0.006476 -0.349037 0.830683 -0.433749
0.054830 -0.037124 -0.010657 -0.009800 0.049423 0.998730
-0.018237 0.022422 0.012273 -0.000380 -0.037837 0.999284
0.087158 -0.063454 -0.013203 -0.126673 -0.304008 -0.944210
-0.059713 0.022359 0.012232 0.009408 -0.045002 0.998943
0.054314 0.064545 0.008660 0.865241 0.391415 -0.313292
0.019096 0.022121 0.012127 0.293757 -0.312652 0.903302
-0.091812 0.005107 0.005057 -0.719774 0.635376 -0.279683
-0.102975 -0.013038 -0.011923 -0.576143 -0.278967 -0.768268
0.053663 -0.034609 0.008813 0.093645 0.211246 -0.972937
0.080262 -0.068423 0.000837 -0.454135 -0.878726 0.146978
-0.032631 0.035535 0.012782 0.002910 0.111770 0.993730
0.084435 0.089271 0.005478 0.503312 0.803675 0.317465
-0.070814 -0.014469 0.012115 0.150261 0.774983 0.613859
-0.022301 0.014100 -0.009659 0.038043 -0.260779 0.964649
-0.059004 -0.021455 -0.011517 0.048396 0.133934 -0.989808
0.078168 -0.052399 0.008511 -0.015165 0.033847 -0.999312
0.066920 -0.056760 -0.008602 0.726646 0.411772 0.549936
-0.015700 0.008948 0.015201 -0.640100 0.533926 0.552445
-0.032648 -0.042471 0.012045 0.013325 -0.086001 0.996206
-0.061623 0.030904 0.008578 -0.607239 0.736200 0.298782
0.051765 -0.032532 -0.010523 0.098523 0.141321 0.985049
-0.010846 0.003917 -0.010192 -0.215654 0.218304 0.951755
0.024201 -0.030602 0.011388 -0.112674 -0.190914 0.975119
-0.000521 0.016794 0.009296 0.027760 0.034131 -0.999032
0.074439 0.077229 -0.011385 0.255518 -0.134501 -0.957403
0.099075 -0.061250 0.006816 -0.239700 0.638163 -0.731637
0.059106 -0.048005 0.004554 0.320877 0.769065 0.552790
-0.020621 -0.037008 -0.012561 -0.009210 0.009573 -0.999912
-0.086184 -0.002933 -0.007913 0.814224 -0.512505 -0.272723
0.083801 -0.053275 -0.010835 0.037085 0.038125 0.998585
-0.085892 -0.003983 0.008669 -0.165862 -0.984396 0.058780
-0.085759 0.005766 -0.005082 0.836188 0.230206 0.497791
-0.011174 0.020256 -0.012435 -0.005737 0.001740 -0.999982
0.034103 0.052053 0.012569 -0.199138 0.188970 0.961579
-0.061603 0.025343 0.012393 -0.138507 0.089703 0.986291
-0.090370 -0.007753 0.010771 -0.048417 0.972420 0.228154
-0.020928 -0.046005 0.007459 0.269910 -0.843758 0.463920
-0.095329 -0.000589 0.001175 -0.033020 0.999203 0.022425
0.027916 0.057808 0.002323 -0.649788 0.748862 0.130313
-0.021792 0.021983 0.012261 -0.004188 -0.032444 0.999465
-0.049564 0.028310 -0.009001 -0.009008 0.001640 0.999958
0.074349 -0.056462 -0.010593 0.138324 0.279216 0.950213
0.067648 0.086093 -0.005384 0.376461 -0.656094 0.654078
0.024675 -0.040690 -0.002917 -0.444831 -0.882816 -0.150869
-0.038742 0.043448 -0.003038 -0.213929 0.930510 -0.297297
0.053474 -0.032795 -0.013092 0.345436 0.521355 -0.780297
0.037714 -0.031354 -0.000915 0.159791 0.362040 -0.918365
-0.062297 0.004530 -0.010340 0.058753 -0.869067 0.491193
-0.080587 -0.002206 -0.013152 0.065598 -0.038844 -0.997090
0.089485 -0.053209 -0.011669 0.401156 0.797665 0.450338
0.056898 0.080081 0.008103 -0.561763 0.650124 0.511627
0.035080 -0.033599 0.003775 0.374938 0.610269 0.697849
-0.067591 -0.029585 -0.011729 -0.013856 0.010901 -0.999845
0.093152 -0.071361 -0.000072 0.144711 -0.981070 -0.128688
0.031739 0.045715 0.000388 0.218418 -0.200763 0.954980
0.080230 0.082162 -0.010875 0.416572 -0.213981 -0.883561
-0.066071 -0.038095 -0.003087 -0.509743 -0.853360 -0.109265
0.075831 -0.057675 0.002554 0.609377 0.188198 0.770221
-0.010638 0.035440 0.007467 0.062458 0.872428 0.484735
-0.064218 0.005538 -0.012010 0.217801 -0.441116 -0.870620
0.078130 -0.052068 -0.010915 -0.022313 0.018316 0.999583
0.048508 0.060691 0.013189 -0.044052 0.031893 0.998520
0.009804 0.022725 -0.012494 -0.007021 0.016984 -0.999831
0.070571 -0.043396 -0.013477 0.212752 0.371153 -0.903871
-0.072268 0.003600 0.011570 0.033985 -0.084756 0.995822
0.055843 0.056477 0.012818 0.373332 -0.432753 0.820578
-0.008307 0.032115 0.011341 0.140239 0.587525 0.796961
0.083355 0.090401 0.003570 0.469649 0.869350 0.153818
-0.040676 0.021269 -0.012078 -0.015608 0.014652 -0.999771
-0.051502 0.025571 -0.009281 -0.024802 -0.042237 0.998800
-0.081531 0.008611 0.004948 0.490502 -0.534985 0.687895
0.046179 0.065715 0.008570 0.613906 -0.673131 -0.412327
-0.010398 -0.022131 0.012025 0.009036 -0.000006 0.999959
-0.065189 0.016597 -0.008452 0.419712 0.121010 0.899555
-0.065265 -0.030217 -0.002368 0.716708 0.486795 -0.499360
0.030144 -0.025106 0.001372 0.519148 0.848502 -0.102616
-0.057321 -0.029191 -0.011753 -0.007032 0.030004 -0.999525
-0.073197 0.008822 0.009406 -0.001975 0.066618 -0.997777
0.034382 0.061762 0.006291 -0.603195 0.685207 0.408225
0.056480 0.058201 -0.011538 0.572567 -0.478815 -0.665509
-0.059546 0.024183 -0.009584 -0.079333 0.033309 0.996292
-0.029896 0.015705 0.011480 -0.037450 -0.443894 0.895296
-0.017525 0.019240 -0.009791 0.034563 -0.022682 0.999145
0.057286 -0.057155 -0.002300 -0.444841 -0.892065 -0.079597
0.015601 0.047287 -0.002228 -0.619808 0.766080 -0.170176
0.018292 0.040394 0.008037 0.685560 -0.725719 -0.057782
-0.067434 0.027127 -0.007548 -0.646202 0.725877 -0.235638
0.007992 0.027778 0.000315 0.409522 -0.845927 0.341612
-0.065021 -0.017232 -0.010057 -0.105643 0.808464 -0.578987
-0.095874 0.000981 0.010121 -0.610875 0.745716 0.265968
-0.092574 0.004951 -0.008541 -0.682278 0.730607 -0.026652
0.074979 -0.063797 -0.008582 -0.385828 -0.757789 -0.526206
-0.034459 0.041363 0.008115 0.151602 0.878865 0.452342
-0.005930 0.010422 0.016570 -0.004014 -0.043255 0.999056
0.080104 -0.065511 -0.004325 0.471914 0.860170 0.193405
-0.012131 -0.022742 -0.012621 -0.019444 0.008101 -0.999778
-0.011082 0.010784 -0.010924 0.084992 -0.191834 0.977740
-0.034707 0.029997 0.009780 -0.005942 -0.030524 -0.999516
-0.039006 -0.030976 0.009634 0.048530 0.013923 -0.998725
0.013529 0.021924 -0.003908 0.590418 -0.807059 0.007887
0.014651 0.024661 -0.001269 0.122629 -0.334509 0.934380
0.089877 -0.068991 -0.000063 0.032390 0.991007 -0.129830
0.030091 0.059249 -0.002869 -0.633443 0.729956 -0.256737
-0.013498 -0.032391 0.009306 -0.670104 0.282696 -0.686327
-0.071571 -0.020281 0.010104 0.283100 0.122850 -0.951190
0.043892 0.052163 0.012965 0.015094 -0.041227 0.999036
-0.051398 -0.021012 -0.008695 0.186592 0.284813 0.940247
0.037714 -0.031354 -0.000915 0.159791 0.362040 -0.918365
-0.065189 0.016597 -0.008452 0.419712 0.121010 0.899555
-0.089822 -0.015240 -0.010928 0.145946 0.431994 -0.889989
-0.006183 -0.040005 0.005168 0.632685 -0.674893 0.379775
-0.012552 -0.032246 0.011956 0.009358 -0.023820 0.999672
