0.091513 0.194598 -0.004778 -0.085156 -0.294799 -0.951757
-0.011360 0.195717 0.145819 0.980774 0.000000 0.195145
-0.000135 -0.044890 0.329358 -0.252294 0.065878 -0.965406
0.205713 0.214591 0.228894 0.000000 -1.000000 -0.000000
-0.195477 0.205289 -0.274847 0.000000 -1.000000 -0.000000
-0.003112 -0.031149 0.317681 0.696397 0.144941 0.702868
-0.003934 -0.008990 -0.189109 0.000000 -0.991960 0.126552
-0.149055 0.205261 -0.105509 0.951754 0.294808 0.085161
-0.120529 0.214591 0.177102 0.000000 1.000000 -0.000000
0.297157 0.205289 0.096854 -0.000000 -1.000000 0.000000
0.320213 0.214591 0.028720 0.000000 -1.000000 -0.000000
-0.007579 0.184608 0.154135 -0.555494 0.000000 0.831521
0.000737 0.007741 0.224370 -0.249224 -0.944054 -0.215983
-0.017260 0.022223 -0.134316 0.000000 -1.000000 0.000000
0.132400 0.026596 -0.008111 -0.707095 0.000003 0.707119
0.211470 0.214591 -0.040508 0.000000 -1.000000 0.000000
-0.000874 0.204883 0.038332 0.000000 0.960720 0.277519
0.002192 -0.027221 0.315843 0.252741 -0.594509 -0.763336
0.146205 0.169906 0.010979 0.195057 0.000000 0.980792
0.000009 -0.055463 -0.314564 0.000000 -1.000000 0.000000
-0.006182 0.023526 0.162894 -0.866259 0.448543 0.220012
-0.303907 -0.017619 0.002705 0.005154 -0.000434 -0.999987
0.085276 0.205289 -0.180015 -0.000000 -1.000000 -0.000000
0.093385 0.205289 0.300997 -0.000000 -1.000000 0.000000
-0.076786 0.007491 0.063962 -0.707107 -0.000026 0.707107
0.002565 -0.026393 0.315335 -0.257738 0.568988 0.780913
0.002185 -0.024912 0.312845 -0.340762 0.934283 -0.104866
-0.000465 0.205289 0.002179 -0.000000 -1.000000 0.000000
0.003767 -0.055685 -0.324565 -0.457977 -0.701678 0.545807
-0.172852 -0.006634 -0.006596 0.124714 -0.992190 0.002177
-0.184487 0.010706 0.006345 0.040175 -0.022599 -0.998937
-0.303531 -0.017189 -0.003601 0.014482 0.000000 0.999895
-0.003697 -0.016061 -0.244537 0.000001 -0.991960 0.126553
-0.032100 0.214591 -0.041290 0.000000 1.000000 0.000000
0.002164 -0.044897 -0.326039 0.258372 -0.065774 -0.963804
-0.004560 -0.020964 0.319945 -0.965837 0.143600 0.215726
0.242714 0.214591 0.184082 0.000000 1.000000 -0.000000
0.080429 0.214591 0.312064 0.000000 1.000000 -0.000000
0.000636 -0.057168 0.330546 0.000000 0.000000 -1.000000
0.000855 -0.009453 0.298225 0.245321 0.944458 0.218671
0.004727 0.027735 -0.135784 0.066987 0.995370 0.068936
-0.005436 -0.019872 0.314394 -0.981134 -0.177504 -0.076602
0.210176 0.214591 0.241194 0.000000 -1.000000 -0.000000
-0.057335 0.205289 -0.269029 0.000000 1.000000 -0.000000
0.007213 0.007913 0.163011 -0.998644 0.000000 -0.052064
0.316356 -0.031112 0.000471 -0.939798 -0.203988 -0.274168
-0.125464 0.214591 -0.108100 0.000000 -1.000000 0.000000
-0.328266 -0.051186 0.001392 0.713419 0.130311 -0.688514
-0.004531 -0.006634 0.172821 0.001089 -0.992190 -0.124729
0.078955 0.205289 -0.157385 -0.000000 1.000000 -0.000000
0.005115 0.017237 -0.176618 0.880686 0.453363 -0.137313
-0.005397 -0.052325 -0.318358 -0.958505 -0.113780 0.261385
-0.185351 0.003020 -0.006263 -0.026627 0.000002 -0.999645
-0.155752 0.205289 -0.266755 0.000000 1.000000 -0.000000
-0.137417 0.027800 0.005407 0.068202 0.995337 0.068201
0.276393 0.214591 0.030631 0.000000 -1.000000 -0.000000
0.228966 0.205289 -0.233157 -0.000000 -1.000000 -0.000000
-0.053556 0.214591 0.210913 0.000000 -1.000000 -0.000000
-0.004993 -0.004480 0.228509 0.999558 0.000000 -0.029734
-0.331877 0.214591 -0.018084 0.000000 -1.000000 0.000000
0.130892 0.205289 -0.057799 -0.000000 1.000000 -0.000000
-0.223883 0.214591 -0.081100 0.000000 -1.000000 0.000000
-0.314228 -0.025945 -0.001077 0.543645 -0.804220 -0.240167
-0.037997 0.205289 -0.154276 0.000000 -1.000000 -0.000000
-0.184180 0.214591 -0.173717 0.000000 1.000000 0.000000
-0.186081 0.205289 -0.155379 0.000000 1.000000 -0.000000
-0.259601 -0.017495 -0.001705 0.114105 -0.993467 0.001992
-0.004075 -0.006369 -0.168017 0.000000 -0.993749 0.111639
0.158203 0.023336 0.006582 -0.211979 -0.447096 -0.869005
0.319895 -0.017410 -0.000408 0.511171 0.822139 -0.250581
0.017951 0.214591 0.177381 0.000000 -1.000000 0.000000
-0.157551 0.214591 0.121513 0.000000 1.000000 -0.000000
-0.004444 -0.013167 -0.302947 -0.883874 0.456736 -0.100790
-0.120855 0.205289 -0.163235 0.000000 -1.000000 -0.000000
0.314648 -0.025565 -0.002167 0.778634 0.568992 0.264533
-0.142590 0.214591 0.141750 0.000000 -1.000000 -0.000000
-0.323679 -0.051214 0.004123 -0.277254 -0.117879 0.953538
0.260184 0.214591 0.025139 0.000000 -1.000000 -0.000000
0.014611 0.025192 0.136029 -0.707091 -0.000005 -0.707123
0.186972 0.201746 0.010748 -0.085160 0.294813 -0.951753
0.326075 -0.052310 -0.003870 0.713414 -0.130289 -0.688524
0.224335 0.214591 0.188253 0.000000 -1.000000 -0.000000
-0.131313 0.025192 0.009434 0.707081 -0.000071 -0.707132
-0.156023 0.205289 0.134768 -0.000000 -1.000000 0.000000
0.136693 0.214591 0.072922 0.000000 -1.000000 -0.000000
-0.003934 -0.008990 -0.189109 -0.000002 0.991960 -0.126552
0.003702 -0.018802 0.306903 0.999989 0.000649 -0.004674
-0.200557 0.205289 0.113021 -0.000000 1.000000 0.000000
-0.311185 0.214591 -0.033755 0.000000 1.000000 0.000000
-0.004452 -0.030629 0.323997 0.965401 -0.079546 -0.248340
-0.009720 0.205289 0.001817 -0.000000 -1.000000 0.000000
0.071691 0.001410 -0.079196 -0.707115 0.000072 0.707099
-0.087992 0.205289 -0.035331 0.000000 -1.000000 -0.000000
-0.006761 0.050296 0.137099 0.555655 0.000000 0.831413
0.299546 0.214591 -0.108864 0.000000 1.000000 0.000000
0.174299 0.205289 0.151141 -0.000000 -1.000000 0.000000
-0.093853 0.205289 0.277318 -0.000000 1.000000 0.000000
0.294871 0.214591 0.078348 0.000000 -1.000000 -0.000000
0.163405 0.205289 0.008561 -0.000000 -1.000000 0.000000
-0.172929 0.012031 0.006746 0.077237 -0.020098 -0.996810
-0.003934 -0.008990 -0.189109 0.000000 -0.991960 0.126552
0.308701 -0.013923 0.002747 -0.043626 -0.086283 -0.995315
-0.112015 0.214591 -0.169849 0.000000 1.000000 0.000000
-0.012936 0.025452 -0.134798 0.399930 -0.824800 -0.399702
0.178144 0.205289 -0.064478 -0.000000 -1.000000 -0.000000
0.252262 0.205289 0.085442 -0.000000 -1.000000 0.000000
-0.151041 0.214591 -0.063935 0.000000 -1.000000 0.000000
-0.006769 0.025368 0.157187 0.239637 -0.917200 -0.318307
0.320048 -0.044970 0.005759 0.275520 -0.053242 -0.959820
-0.139925 0.214591 -0.023715 0.000000 1.000000 0.000000
0.226003 0.205289 0.105063 -0.000000 -1.000000 0.000000
0.002639 -0.023224 0.303762 0.001281 -0.989145 -0.146939
0.020498 0.214591 -0.055018 0.000000 -1.000000 0.000000
-0.263493 -0.017934 0.002347 0.114100 -0.993467 0.002067
-0.326977 -0.036117 0.001379 0.712650 -0.130457 -0.689283
-0.210087 -0.011347 -0.005708 -0.021009 0.000000 -0.999779
-0.284681 0.205289 -0.005173 -0.000000 1.000000 -0.000000
-0.073771 0.205289 -0.026541 0.000000 1.000000 -0.000000
-0.011763 0.205289 0.139045 -0.000000 1.000000 0.000000
0.047805 0.201839 -0.136056 -0.085150 0.294771 -0.951767
0.003619 -0.024184 -0.313405 0.693072 -0.572359 0.438241
-0.005116 0.203886 -0.246365 0.951753 0.294813 0.085160
-0.000290 0.205289 -0.000178 0.000000 -1.000000 0.000000
-0.314145 -0.024984 0.001611 0.396201 -0.577799 0.713563
0.069457 0.205289 0.053916 -0.000000 1.000000 0.000000
0.319857 -0.042639 0.005574 0.275492 -0.057119 -0.959605
0.043619 0.205289 0.023041 -0.000000 1.000000 0.000000
-0.327267 -0.055470 0.002382 -0.342014 0.000000 0.939695
-0.156724 0.177494 0.006510 0.277519 0.960720 -0.000000
-0.322728 -0.040283 -0.006842 -0.238981 0.121359 -0.963411
-0.051953 0.214591 0.115376 0.000000 1.000000 -0.000000
-0.168920 0.205289 0.134613 -0.000000 -1.000000 0.000000
0.281207 0.214591 -0.095693 0.000000 -1.000000 0.000000
0.251623 0.205289 -0.085800 -0.000000 -1.000000 -0.000000
0.182215 0.214591 -0.038059 0.000000 -1.000000 0.000000
-0.249518 0.214591 0.211947 0.000000 -1.000000 -0.000000
-0.136306 0.202130 -0.055470 0.951754 -0.294808 -0.085161
0.016090 0.214591 -0.010829 0.000000 -1.000000 0.000000
-0.080693 0.214591 0.319425 0.000000 -1.000000 -0.000000
0.054732 0.202170 0.006299 -0.085156 -0.294799 0.951757
0.099168 0.205289 0.175403 -0.000000 1.000000 0.000000
0.004729 -0.040283 -0.320231 0.956604 0.129450 -0.261058
0.000501 -0.020363 0.284486 -0.000995 0.993467 0.114118
-0.003063 -0.024912 -0.310332 0.064727 0.979064 -0.192987
-0.148601 0.165015 -0.010973 0.194924 0.000000 0.980818
0.009222 -0.000873 -0.156430 0.991645 0.000000 -0.128997
-0.142077 0.202527 0.010050 0.555495 0.000000 0.831520
-0.256992 0.214591 -0.211242 0.000000 -1.000000 0.000000
-0.168131 0.006723 -0.007332 -0.154151 0.000000 -0.988047
0.004210 -0.026759 0.323204 0.700540 0.167039 0.693788
0.308772 -0.012576 0.001928 -0.147978 -0.488922 -0.859685
0.002429 -0.020363 -0.281990 0.998960 0.000000 -0.045595
-0.138465 -0.005686 0.007637 0.555571 0.000000 0.831469
-0.130458 0.024312 -0.010593 -0.482547 -0.730956 0.482547
-0.326350 -0.032525 -0.003858 0.949616 -0.146674 0.276978
0.191396 0.205289 0.143025 -0.000000 -1.000000 0.000000
0.004817 0.018714 0.172903 -0.215652 -0.851241 -0.478418
-0.004241 -0.005885 -0.157608 0.000000 0.999970 0.007771
-0.028004 0.214591 0.025308 0.000000 1.000000 -0.000000
-0.102674 0.205289 0.297749 -0.000000 1.000000 0.000000
0.255386 0.214591 -0.191566 0.000000 1.000000 0.000000
0.309421 -0.024100 0.003263 -0.205929 -0.369012 0.906324
0.164653 -0.004450 -0.008001 -0.060982 0.000000 0.998139
-0.199169 0.205289 0.252202 -0.000000 1.000000 0.000000
0.002486 -0.013253 -0.280739 -0.998959 0.000000 0.045607
-0.071241 0.214591 0.103785 0.000000 1.000000 -0.000000
0.304914 0.214591 -0.070537 0.000000 1.000000 0.000000
0.003576 -0.009214 0.290405 -0.883488 -0.454360 -0.114043
0.001546 -0.023823 -0.304633 0.012742 -0.984830 0.173059
0.005445 -0.055685 0.322216 -0.616992 -0.701732 0.356221
0.040138 0.214591 0.219514 0.000000 -1.000000 -0.000000
-0.004797 -0.015066 -0.308478 0.866761 -0.487599 0.104750
-0.011887 0.214591 -0.173581 0.000000 1.000000 -0.000000
-0.161832 0.214591 -0.196360 0.000000 -1.000000 0.000000
-0.272160 -0.003974 0.002565 -0.123553 0.456386 0.881162
0.187669 -0.008504 -0.003095 -0.124790 -0.992181 -0.002190
0.118003 0.214591 -0.031501 0.000000 1.000000 0.000000
-0.001979 -0.011347 -0.207586 0.000000 0.991960 -0.126553
-0.184356 0.214591 0.216464 0.000000 1.000000 -0.000000
0.156868 0.068598 -0.000466 -0.980862 0.000000 0.194702
-0.003782 -0.057310 -0.315095 -0.242800 -0.705878 0.665421
-0.008614 0.001229 0.160022 0.992730 0.000000 -0.120361
-0.216949 0.205289 0.122726 -0.000000 -1.000000 0.000000
-0.303797 -0.017619 -0.003597 -0.001565 0.000000 0.999999
-0.113339 0.205289 0.251826 -0.000000 1.000000 0.000000
-0.007394 0.149586 -0.154720 -0.555813 0.000000 -0.831307
-0.145649 0.214591 -0.210229 0.000000 1.000000 0.000000
0.216490 0.205289 -0.218098 -0.000000 -1.000000 -0.000000
0.100072 0.205289 -0.299025 -0.000000 -1.000000 -0.000000
0.049624 0.214591 0.258192 0.000000 1.000000 -0.000000
-0.014293 0.025955 -0.137281 0.338952 -0.877623 -0.338952
0.231012 0.205289 0.130076 -0.000000 -1.000000 0.000000
0.143978 0.205289 0.132511 -0.000000 1.000000 0.000000
0.004441 -0.024569 0.316324 -0.701547 0.402768 0.587886
-0.293995 -0.021766 -0.003015 -0.146851 0.989155 -0.002697
0.000976 -0.011254 -0.301243 0.877614 0.453516 -0.155296
-0.038152 0.205289 -0.335601 0.000000 1.000000 -0.000000
0.048014 0.205289 -0.083249 -0.000000 1.000000 -0.000000
-0.299653 0.214591 0.158041 0.000000 -1.000000 0.000000
-0.001699 -0.011677 0.305476 -0.241850 0.939874 0.241135
0.003803 -0.017799 0.308970 0.978778 0.020591 -0.203884
0.008939 0.025589 0.131176 -0.369581 -0.852537 0.369583
-0.178135 0.017129 -0.004914 0.121339 -0.454746 0.882317
0.004289 -0.005918 0.272035 0.999456 0.020072 0.026166
-0.004009 -0.024561 -0.310377 -0.314222 -0.342824 -0.885288
0.318022 -0.044989 -0.002552 -0.952981 -0.129740 -0.273853
-0.327717 -0.040241 0.001510 0.949291 -0.203230 -0.239883
0.254463 0.205289 -0.091023 -0.000000 -1.000000 -0.000000
0.001639 -0.028456 -0.322880 0.259672 0.212527 -0.942020
0.008657 -0.005684 -0.131995 -0.000000 1.000000 0.000000
0.001588 -0.023224 0.303752 0.001285 -0.989145 -0.146939
0.000525 -0.022270 0.297324 -0.001288 0.989145 0.146939
0.304993 -0.023476 0.000828 -0.180349 -0.983600 -0.002263
-0.008262 -0.005686 -0.138354 0.555567 0.000000 -0.831472
0.002224 -0.012181 -0.288406 0.999491 0.000000 -0.031898
0.318232 -0.046710 -0.002467 0.689138 0.119685 0.714678
-0.308923 -0.013923 -0.003394 -0.131586 0.510307 -0.849866
0.159973 -0.005885 -0.000290 0.007770 -0.999970 0.000136
-0.015297 0.205729 0.175461 0.951756 0.294803 -0.085157
0.113917 0.009053 0.026198 0.707110 0.000002 0.707104
0.115284 0.214591 0.276814 0.000000 1.000000 -0.000000
-0.119034 0.181276 -0.002270 -0.277519 0.960720 0.000000
0.003217 -0.023550 -0.311089 -0.604306 0.508234 0.613605
-0.015451 0.214591 -0.010362 0.000000 1.000000 0.000000
-0.003916 -0.053566 0.327229 -0.642780 0.000000 0.766051
-0.144246 0.205289 -0.298078 0.000000 1.000000 -0.000000
0.284438 -0.020363 -0.003893 0.032669 0.000005 -0.999466
-0.106013 0.205289 0.303912 -0.000000 1.000000 0.000000
0.321328 -0.057390 -0.004736 -0.457977 -0.701686 -0.545796
0.051278 0.205289 0.050180 -0.000000 1.000000 0.000000
-0.130283 0.214591 -0.281415 0.000000 -1.000000 0.000000
0.000264 -0.054875 0.319983 -0.000000 0.000000 1.000000
0.004641 -0.042437 0.319758 -0.713082 -0.011546 0.700986
-0.162913 0.001009 -0.008022 -0.111692 0.000001 -0.993743
0.306517 -0.020951 0.002952 0.000764 0.000497 -1.000000
0.138040 0.026788 0.012600 0.704791 0.005107 0.709388
-0.172392 0.214591 -0.074019 0.000000 -1.000000 0.000000
-0.111878 -0.005229 -0.039697 -0.707104 -0.000001 -0.707109
0.326516 -0.032290 -0.000542 -0.947326 -0.211879 0.240168
-0.001042 -0.055463 -0.320527 0.000000 -1.000000 0.000000
0.004789 0.014754 0.187802 -0.881896 -0.456201 -0.118911
-0.008915 0.214591 0.326740 0.000000 1.000000 0.000000
-0.010617 0.027735 0.140655 0.103744 -0.989179 0.103744
0.321219 -0.055685 0.005946 -0.642784 0.000000 0.766048
0.201377 0.205289 -0.049080 -0.000000 -1.000000 -0.000000
-0.005852 -0.057168 -0.316493 0.866019 0.000000 -0.500011
0.137747 0.214591 -0.244297 0.000000 -1.000000 0.000000
0.000693 -0.023719 -0.304001 0.009345 -0.984318 0.176156
0.126724 0.214591 0.057079 0.000000 1.000000 -0.000000
-0.141588 -0.005684 -0.009987 0.707107 0.000001 0.707107
0.000572 -0.011103 0.305518 -0.242009 0.940775 0.237431
0.326221 -0.050086 -0.004106 0.717747 -0.072845 -0.692483
-0.326885 -0.045208 -0.005987 -0.692919 -0.073145 -0.717296
-0.001189 -0.024244 -0.306587 -0.000920 0.977200 -0.212316
-0.161949 0.205289 0.162088 -0.000000 1.000000 0.000000
0.308509 -0.015738 0.002962 0.001842 0.001511 -0.999997
-0.014246 0.214591 0.023462 0.000000 1.000000 -0.000000
0.004566 -0.005841 0.165839 -0.000975 0.993749 0.111634
0.179857 0.205289 0.286525 0.000000 -1.000000 0.000000
0.007202 0.049510 0.137676 -0.555655 0.000000 0.831413
0.007064 0.007485 0.165860 -0.997779 0.000000 -0.066618
0.235125 0.205289 0.118891 -0.000000 1.000000 0.000000
-0.049632 0.205289 -0.146925 0.000000 -1.000000 -0.000000
-0.328140 -0.052304 0.001311 0.962447 0.125875 -0.240522
-0.029273 0.214591 -0.227845 0.000000 -1.000000 0.000000
-0.075573 0.214591 -0.110905 0.000000 1.000000 0.000000
-0.132145 0.177488 0.005786 0.277519 -0.960720 0.000000
0.310058 0.205289 0.059528 -0.000000 -1.000000 0.000000
-0.294194 -0.021786 0.000827 -0.146841 0.989157 -0.002583
0.319283 -0.032586 -0.003877 0.687130 0.140769 0.712767
-0.002055 0.203918 -0.041138 0.000000 -0.960720 0.277519
-0.277659 0.214591 0.139647 0.000000 -1.000000 -0.000000
-0.322537 -0.020138 -0.000627 -0.742893 0.622496 0.246187
0.192937 0.214591 0.010488 0.000000 -1.000000 -0.000000
-0.272157 -0.018929 0.002347 0.114105 -0.993467 0.001990
0.001620 -0.024946 0.313250 -0.396839 0.897406 -0.192822
0.031103 0.205289 0.000279 -0.000000 1.000000 0.000000
-0.220514 0.205289 0.120559 -0.000000 1.000000 0.000000
-0.005990 -0.024517 -0.316730 0.964045 -0.089622 0.250169
0.002781 -0.012111 0.307278 0.865023 0.485854 0.125223
0.004061 0.203428 0.156203 -0.195087 0.000000 -0.980786
-0.005160 -0.041166 0.325153 0.958783 -0.129654 -0.252835
0.030100 0.205289 0.163195 -0.000000 1.000000 0.000000
0.274289 0.205289 0.172789 -0.000000 -1.000000 0.000000
-0.171257 -0.006435 0.003476 0.111875 -0.993721 0.001924
-0.320823 -0.052480 0.003087 0.690245 -0.112049 0.714847
-0.017148 -0.003039 0.134124 0.707109 0.000001 -0.707104
-0.146965 0.205289 0.297415 -0.000000 -1.000000 0.000000
-0.006092 0.007344 0.191546 -0.999375 0.000000 0.035351
-0.006994 0.017112 -0.155081 0.998650 -0.020075 0.047910
-0.007587 0.011288 0.133160 0.707100 -0.000002 -0.707114
-0.094218 0.205289 -0.297245 0.000000 1.000000 -0.000000
-0.006387 0.012162 -0.168017 -0.997426 0.023478 -0.067755
-0.325084 0.205289 0.065854 -0.000000 1.000000 0.000000
-0.157486 0.001415 0.007804 0.060773 0.000000 -0.998152
0.005237 -0.055463 0.326434 0.000000 -1.000000 0.000000
-0.281656 0.205289 -0.063312 0.000000 1.000000 -0.000000
0.297004 -0.022245 0.002018 -0.146845 -0.989157 -0.002416
-0.305467 -0.017899 0.002698 0.005018 -0.000369 -0.999987
0.323268 -0.055685 0.006692 0.000000 0.000000 1.000000
0.024936 0.214591 -0.325016 0.000000 1.000000 0.000000
0.087829 0.214591 0.328684 -0.330280 0.000000 -0.943883
0.294893 0.205289 0.084742 -0.000000 -1.000000 0.000000
-0.006534 0.004115 0.179049 -0.999375 0.000000 0.035349
-0.001714 -0.006105 -0.165664 0.000001 -0.993749 0.111641
-0.303797 -0.014817 -0.003597 -0.014451 0.000000 -0.999896
0.018381 0.001085 0.132259 -0.707112 0.000003 -0.707101
0.326394 -0.034321 0.003262 0.949616 0.146674 0.276978
-0.307085 -0.015431 -0.003605 -0.019247 0.115694 -0.993098
0.328998 -0.057390 -0.003384 0.457965 -0.701729 -0.545752
0.178882 -0.001640 0.005782 0.026626 0.000000 0.999645
0.003431 -0.020950 -0.309439 0.910696 0.019997 0.412594
-0.006109 -0.022574 -0.315446 0.958593 0.247971 -0.140034
-0.015982 0.024312 0.135290 0.707124 0.000007 -0.707089
-0.003709 -0.040326 -0.315386 0.264229 0.035263 -0.963815
0.000957 0.025001 -0.160460 0.239154 0.916633 -0.320295
0.152377 0.214591 -0.162286 0.000000 1.000000 0.000000
0.088048 0.214591 0.252933 0.000000 -1.000000 -0.000000
0.123734 0.214591 -0.019200 0.000000 -1.000000 0.000000
0.284419 -0.006838 -0.002946 0.221009 0.945213 -0.240264
-0.000133 -0.048338 0.329107 0.271418 0.070100 -0.959905
-0.018707 -0.002689 -0.122344 0.707107 -0.000000 0.707107
-0.004600 -0.020087 0.319188 0.964667 -0.144910 -0.220043
-0.181427 0.214591 -0.288455 0.000000 -1.000000 0.000000
-0.300798 0.214591 -0.002800 0.000000 1.000000 0.000000
-0.205864 0.214591 0.062440 0.000000 -1.000000 -0.000000
-0.247114 -0.016061 -0.001797 -0.126533 0.991960 -0.002209
0.005445 -0.057168 0.322216 -0.866025 0.000000 0.500001
-0.292668 0.205289 0.166992 -0.000000 1.000000 0.000000
-0.296984 0.214591 0.013762 0.000000 -1.000000 -0.000000
-0.003438 -0.023224 -0.301243 -0.011276 -0.985799 0.167550
0.002429 -0.020363 -0.281990 -0.000006 0.989145 -0.146944
0.191381 -0.003545 0.005450 -0.026629 0.000000 -0.999645
0.190055 -0.004933 -0.006845 -0.032174 0.000000 0.999482
-0.035698 0.214591 0.053234 0.000000 1.000000 -0.000000
-0.340515 0.214591 0.012553 0.999301 0.000000 0.037391
0.003966 -0.039492 -0.322657 0.958729 0.117941 -0.258705
-0.323194 -0.026759 -0.005525 -0.676355 0.161635 -0.718623
-0.312350 -0.020954 0.003593 0.311621 -0.031438 0.949686
-0.002984 -0.048345 0.328301 0.709874 0.091094 -0.698413
0.136572 0.214591 0.188150 0.000000 -1.000000 -0.000000
-0.009978 0.195560 0.199708 -0.951754 -0.294807 0.085160
0.101293 0.214591 0.033546 0.000000 -1.000000 -0.000000
-0.000111 -0.030449 0.326521 -0.265505 0.215539 0.939708
0.139429 0.204834 -0.090972 0.951780 0.294732 0.085137
-0.299589 0.205289 0.000230 -0.000000 -1.000000 -0.000000
-0.142086 -0.005686 0.010056 -0.195091 0.000000 -0.980785
0.228534 -0.004480 -0.005676 0.030281 0.000000 -0.999541
-0.007890 0.017461 0.165456 -0.991994 0.019800 0.124725
-0.127927 0.214591 -0.122454 0.000000 1.000000 0.000000
-0.256829 0.214591 -0.209568 0.000000 -1.000000 0.000000
0.235744 0.214591 -0.198613 0.000000 1.000000 0.000000
-0.328140 -0.052304 0.001311 -0.714984 -0.109800 0.690465
0.259330 -0.005968 0.003932 0.028154 -0.000002 0.999604
-0.268407 0.205289 0.101748 -0.000000 1.000000 0.000000
-0.002927 -0.005841 0.165773 -0.000068 -0.999970 0.007769
-0.141393 0.021087 -0.010182 0.707805 0.000000 0.706407
-0.002516 -0.013167 0.305417 0.999071 -0.020061 -0.038145
0.109775 0.214591 0.136774 0.000000 1.000000 -0.000000
0.165812 0.000822 -0.007930 0.060779 0.000000 -0.998151
-0.117667 0.006041 0.023080 0.707110 -0.000002 -0.707104
0.254666 0.214591 -0.103398 0.000000 -1.000000 0.000000
0.078782 0.214591 -0.186394 0.000000 -1.000000 0.000000
-0.147480 0.214591 -0.196213 0.000000 -1.000000 0.000000
-0.306972 -0.012162 0.001870 -0.150242 0.474035 0.867593
-0.002531 -0.027998 0.316459 0.700941 0.144399 0.698449
-0.179215 0.018461 0.000060 -0.229952 0.943773 0.237518
-0.028513 0.214591 0.136432 0.000000 -1.000000 -0.000000
0.002504 -0.034321 0.326579 0.250566 0.146696 0.956921
-0.134675 0.022785 -0.016900 -0.532409 -0.658090 0.532409
-0.326350 -0.032525 -0.003858 0.683961 -0.168820 0.709717
-0.220259 0.205289 -0.139662 0.000000 -1.000000 -0.000000
0.121656 0.214591 0.210277 0.000000 1.000000 -0.000000
0.235864 0.004645 0.001679 0.215548 0.942698 0.254676
-0.002737 -0.017789 0.319694 0.263373 -0.622560 -0.736922
0.320671 -0.027215 -0.004425 -0.265356 -0.091942 0.959757
0.002114 -0.006369 0.170525 -0.000974 0.993749 0.111636
0.027658 0.204245 0.134331 -0.085159 0.294806 0.951755
0.156233 -0.002833 -0.003667 0.980862 0.000000 -0.194702
0.203466 0.205289 -0.260342 -0.000000 -1.000000 -0.000000
-0.082743 0.205289 0.038651 -0.000000 -1.000000 0.000000
-0.109027 0.214591 0.033515 0.000000 1.000000 -0.000000
0.166266 -0.005904 -0.002001 -0.111431 -0.993771 -0.001829
0.139049 0.083235 -0.008769 -0.555548 0.000000 -0.831484
0.156093 0.203428 0.004173 0.831470 0.000000 0.555569
-0.089719 0.214591 0.035093 0.000000 -1.000000 -0.000000
0.334236 0.214591 -0.063474 0.000000 -1.000000 0.000000
-0.006247 -0.020882 -0.313555 -0.963532 0.205523 -0.171364
0.004526 -0.047541 -0.322213 0.960129 -0.092794 -0.263706
0.326075 -0.052310 -0.003870 -0.278247 0.126647 0.952124
-0.257899 0.205289 0.148532 -0.000000 1.000000 0.000000
0.000366 -0.018929 -0.269505 0.000000 0.993467 -0.114122
0.002020 -0.022270 -0.294827 0.000003 -0.989145 0.146944
0.001592 -0.021708 -0.291038 0.000000 0.989164 -0.146811
0.179406 0.205289 0.079648 -0.000000 -1.000000 0.000000
-0.026250 0.205289 0.179601 -0.000000 -1.000000 0.000000
-0.000887 -0.050062 -0.326486 -0.263041 0.070115 0.962234
-0.218336 0.214591 0.201018 0.000000 -1.000000 -0.000000
0.001720 -0.053566 0.328223 0.342028 0.000000 0.939690
-0.286712 -0.020680 -0.001276 0.147006 -0.989132 0.002570
-0.219313 0.214591 0.215354 0.000000 -1.000000 -0.000000
-0.255984 0.205289 -0.178828 0.000000 -1.000000 -0.000000
0.046627 0.214591 0.038953 0.000000 1.000000 -0.000000
0.254017 0.205289 0.220309 -0.000000 -1.000000 0.000000
0.004695 -0.005885 0.160138 0.000068 0.999970 -0.007769
-0.318358 -0.052334 -0.001149 0.951851 -0.129361 0.277930
0.003619 -0.020964 -0.317491 0.702514 0.442499 -0.557377
-0.000887 -0.025052 -0.310313 0.031950 -0.975977 0.215520
-0.323775 -0.036795 -0.006188 0.241677 -0.077935 0.967222
0.004130 -0.022798 0.312261 -0.888784 0.262044 0.376027
0.246838 -0.007701 0.004284 -0.028154 0.000002 -0.999604
0.002794 -0.021317 0.290925 0.001282 -0.989145 -0.146938
0.019884 0.018239 -0.120626 -0.707107 -0.000025 0.707107
0.000009 -0.055463 -0.326493 0.000000 0.701760 -0.712413
0.167141 0.214591 0.016349 0.000000 1.000000 -0.000000
-0.004514 0.214591 -0.086045 0.000000 -1.000000 -0.000000
0.306408 -0.023716 -0.001292 0.180584 0.983430 0.015955
-0.063748 0.214591 0.045150 0.000000 1.000000 -0.000000
0.089959 0.214591 -0.179670 0.000000 1.000000 0.000000
-0.014082 0.214591 -0.013081 0.000000 1.000000 0.000000
0.335391 0.214591 -0.046225 0.000000 1.000000 0.000000
0.044706 0.205289 0.079984 -0.000000 1.000000 0.000000
0.032228 0.205289 0.003066 -0.000000 1.000000 0.000000
-0.272179 -0.008416 0.003654 0.041860 -0.028584 -0.998715
0.255283 0.205289 -0.093873 -0.000000 1.000000 -0.000000
-0.319782 0.214591 0.108548 0.000000 -1.000000 -0.000000
-0.002588 -0.023709 0.306474 -0.999958 -0.001170 0.009052
0.303575 -0.020421 0.002950 0.014449 0.000000 0.999896
0.006447 -0.001640 0.179163 -0.999725 0.000000 -0.023433
0.115904 0.214591 0.260296 0.000000 -1.000000 -0.000000
-0.314367 -0.025705 -0.000046 0.533930 -0.804820 0.259198
-0.148664 0.214591 0.087693 0.000000 1.000000 -0.000000
0.053414 0.205289 -0.005312 -0.000000 -1.000000 -0.000000
-0.259550 -0.009827 -0.004579 -0.028154 0.000000 -0.999604
0.325763 -0.030502 -0.001917 -0.705326 -0.168180 0.688645
0.125786 0.214591 0.045587 0.000000 1.000000 -0.000000
0.104319 0.205289 -0.313397 -0.000000 -1.000000 -0.000000
0.306810 0.214591 -0.055387 0.000000 -1.000000 0.000000
-0.316081 -0.024184 0.003398 0.090236 -0.260946 0.961127
-0.015126 0.025192 -0.136448 -0.707231 0.000313 -0.706983
0.072451 0.214591 0.148447 0.000000 -1.000000 -0.000000
0.002538 -0.032602 0.317520 -0.271137 0.043272 0.961568
-0.294099 0.205289 0.048590 -0.000000 1.000000 0.000000
-0.000865 -0.057284 0.330432 0.000000 -0.702258 0.711923
-0.014923 0.022500 0.131823 -0.555493 0.618751 -0.555495
-0.326272 0.214591 -0.048980 0.000000 -1.000000 0.000000
0.247124 0.205289 0.127072 -0.000000 -1.000000 0.000000
-0.006057 -0.023167 -0.315990 0.963367 -0.130412 0.234345
-0.228752 0.003383 0.004937 0.122259 -0.460838 -0.879023
-0.004546 -0.023895 -0.305382 0.999903 -0.000914 -0.013863
-0.063265 0.205289 -0.145219 0.000000 -1.000000 -0.000000
0.000332 -0.007419 -0.176618 0.000001 -0.992190 0.124733
0.003130 -0.024561 0.312899 0.340762 -0.934283 0.104866
0.071297 0.205289 0.070448 -0.000000 1.000000 0.000000
-0.106487 0.205289 0.116332 -0.000000 -1.000000 0.000000
0.276326 0.214591 -0.026282 0.000000 1.000000 0.000000
0.009523 0.214591 -0.113455 0.000000 -1.000000 0.000000
0.001309 -0.013382 -0.305713 -0.847392 -0.510394 0.146374
0.034651 0.214591 0.063697 0.000000 -1.000000 -0.000000
0.148342 -0.004695 0.010554 -0.195057 0.000000 -0.980792
-0.080362 0.205289 0.129691 -0.000000 1.000000 0.000000
-0.299705 0.214591 0.055663 0.000000 -1.000000 -0.000000
-0.287987 0.205289 0.071714 -0.000000 -1.000000 0.000000
0.292396 0.205289 0.139415 -0.000000 -1.000000 0.000000
-0.177816 0.200952 0.011890 0.085171 0.294814 -0.951751
-0.028434 0.205289 -0.334238 -0.000000 1.000000 0.000000
-0.307034 -0.023800 0.000040 -0.180048 0.983521 -0.016371
-0.002666 -0.025191 0.314223 -0.250126 -0.759033 -0.601088
0.318078 -0.055685 0.000509 0.701805 -0.701537 0.123755
-0.052387 -0.005684 0.093086 -0.000000 1.000000 0.000000
0.327497 -0.055685 -0.004928 0.642775 0.000000 -0.766055
-0.140632 0.205289 0.129364 -0.000000 -1.000000 0.000000
-0.318677 -0.048430 0.001703 0.951083 -0.133901 0.278407
-0.320586 -0.048413 -0.006090 -0.713677 0.119665 0.690177
0.003966 0.163005 -0.156519 0.555813 0.000000 -0.831307
-0.138905 0.214591 -0.076439 0.000000 1.000000 0.000000
0.103773 0.214591 -0.036310 0.000000 1.000000 0.000000
-0.148034 0.181452 -0.024208 0.006435 -0.960699 -0.277516
0.129943 0.024312 0.010173 0.707046 0.000154 0.707168
-0.006671 0.019725 -0.160460 -0.872760 0.452929 -0.182055
-0.000066 -0.056109 -0.326711 -0.000000 -0.000000 -1.000000
0.007345 0.201402 -0.154260 0.555813 0.000000 -0.831307
0.135328 0.102608 0.003480 0.980687 0.000000 -0.195584
-0.098226 0.205289 0.059576 -0.000000 -1.000000 0.000000
-0.062551 0.007940 0.088721 -0.707109 -0.000001 0.707104
0.037634 0.214591 0.335958 0.000000 -1.000000 -0.000000
0.116057 0.214591 0.033722 0.000000 1.000000 -0.000000
0.005179 0.205289 0.004667 -0.000000 1.000000 0.000000
-0.216077 0.205289 -0.193736 0.000000 -1.000000 -0.000000
0.000513 -0.007661 0.290905 0.242800 -0.944869 -0.219707
0.004139 -0.003521 -0.244537 0.998769 0.012438 -0.048025
-0.210087 -0.006303 -0.005708 0.021009 0.000000 0.999779
0.320645 -0.021766 -0.003918 0.268553 0.090511 -0.959003
-0.223413 0.205289 0.182595 -0.000000 -1.000000 0.000000
-0.014043 0.025601 -0.136216 0.370092 -0.852186 -0.369881
-0.049494 0.214591 0.026110 0.000000 1.000000 -0.000000
-0.315207 -0.023489 -0.005691 0.420804 -0.577839 -0.699304
0.001650 -0.024562 -0.321540 -0.699050 -0.296848 0.650546
0.267443 0.205289 0.171629 -0.000000 -1.000000 0.000000
0.255600 0.214591 0.084388 0.000000 1.000000 -0.000000
-0.002422 0.195713 0.220820 0.000000 0.960720 -0.277519
0.005680 0.214591 -0.020534 0.000000 -1.000000 0.000000
-0.309182 -0.024162 -0.002711 -0.170597 0.981523 0.086644
-0.010988 -0.005487 -0.140586 -0.707104 -0.000001 -0.707109
0.001710 -0.055463 -0.316955 0.000000 -1.000000 -0.000000
0.320864 0.214591 -0.061953 0.000000 1.000000 0.000000
-0.024769 0.214591 -0.204942 0.000000 -1.000000 0.000000
-0.046907 0.205289 -0.119302 0.000000 -1.000000 -0.000000
0.290879 -0.021337 0.002437 0.146849 0.989156 0.002441
0.326153 -0.044916 0.005865 0.241740 0.121635 0.962687
0.155091 0.155515 0.005672 -0.831413 0.000000 -0.555655
-0.004070 -0.055463 -0.325773 0.243697 -0.701613 0.669590
-0.261328 0.214591 -0.198942 0.000000 1.000000 0.000000
0.256171 0.214591 -0.214540 0.000000 1.000000 0.000000
0.195378 0.205289 -0.073479 -0.000000 -1.000000 -0.000000
-0.227286 0.214591 0.149741 0.000000 -1.000000 -0.000000
-0.119972 0.214591 -0.315780 0.000000 -1.000000 0.000000
-0.001374 -0.011991 0.306992 0.246176 -0.937245 -0.246920
-0.324517 -0.054416 0.002911 -0.000000 0.000000 1.000000
0.001392 -0.013704 -0.226063 0.000000 0.991960 -0.126552
-0.083357 0.214591 0.188765 0.000000 1.000000 -0.000000
0.009973 0.205289 0.114173 -0.000000 1.000000 -0.000000
0.008483 0.025955 -0.132027 0.707020 -0.000258 -0.707193
0.297271 -0.019352 -0.003533 0.028089 0.000000 -0.999605
-0.011415 0.020156 0.139856 0.707103 -0.000022 -0.707110
0.003584 -0.013555 0.307191 -0.876380 -0.464239 -0.128215
-0.313096 -0.024105 0.002395 0.030410 0.447260 -0.893887
-0.156915 0.214591 -0.074153 0.000000 1.000000 0.000000
-0.066450 0.205289 -0.188779 0.000000 1.000000 -0.000000
-0.044159 0.214591 0.175230 0.000000 -1.000000 -0.000000
0.109043 0.214591 -0.125919 0.000000 -1.000000 0.000000
0.309569 -0.014163 0.002896 -0.033040 -0.610009 -0.791706
0.110463 0.205289 0.261624 -0.000000 -1.000000 0.000000
0.047326 0.205289 0.249784 -0.000000 -1.000000 0.000000
0.006715 0.013107 -0.177639 -0.998546 -0.017485 0.050988
0.306433 -0.014133 0.002849 -0.014116 -0.088705 -0.995958
-0.228663 -0.013704 -0.000145 -0.126533 0.991960 -0.002209
0.146158 0.214591 -0.272697 0.000000 1.000000 0.000000
0.005824 -0.057168 0.324363 -0.701614 0.701736 0.123710
-0.235640 0.205289 0.200376 -0.000000 -1.000000 0.000000
-0.075601 0.214591 -0.221810 0.000000 1.000000 0.000000
-0.004571 -0.052325 0.320813 0.955736 0.117867 0.269587
-0.139897 0.177135 -0.009075 0.006454 -0.960701 -0.277509
0.248050 -0.007567 0.004250 0.028167 0.000000 0.999603
0.125116 -0.005426 0.014999 0.707109 -0.000001 0.707104
-0.306904 -0.018189 -0.003602 -0.001842 0.001511 0.999997
-0.033648 0.205289 0.277055 -0.000000 1.000000 0.000000
0.228474 -0.013704 -0.002219 -0.126534 -0.991960 -0.002206
-0.099394 0.205289 0.072506 -0.000000 -1.000000 0.000000
0.156894 0.176501 0.000139 -0.980862 0.000000 -0.194702
-0.297491 -0.019352 0.002886 -0.028089 0.000000 0.999605
0.004873 0.020006 0.170549 -0.846408 -0.441023 -0.298482
-0.007470 0.052934 0.154208 0.555494 0.000000 -0.831521
0.308672 0.214591 0.135242 0.000000 1.000000 -0.000000
0.003569 -0.009827 -0.257021 0.998960 0.000000 -0.045595
-0.007720 0.020694 0.162639 -0.861787 0.446188 0.241329
-0.172891 -0.006634 -0.004371 0.111624 -0.993749 0.001949
-0.127007 0.205289 0.072830 -0.000000 1.000000 0.000000
0.328499 -0.054607 -0.000944 -0.984536 0.000000 0.175182
0.000882 -0.025078 -0.310602 0.290973 -0.955100 0.055852
-0.004854 -0.037718 0.320197 -0.962515 0.028454 -0.269734
0.228354 0.003383 0.004580 0.026239 0.012782 0.999574
0.247882 0.214591 -0.063748 0.000000 -1.000000 0.000000
-0.176799 0.214591 0.055005 0.000000 1.000000 -0.000000
0.004201 -0.023757 0.313471 0.859034 -0.435464 -0.269131
-0.111407 0.205289 -0.016922 0.000000 1.000000 -0.000000
-0.005168 0.100389 0.155745 0.555494 0.000000 -0.831521
-0.005500 0.000161 -0.226028 -0.999369 0.028319 -0.021419
0.008483 0.025955 -0.132027 0.707123 0.000027 -0.707091
-0.097001 0.205289 -0.132344 0.000000 1.000000 -0.000000
0.312112 -0.024186 -0.003027 0.046972 -0.588594 -0.807063
-0.003503 -0.023694 -0.304001 -0.020945 -0.985315 0.169458
-0.003659 -0.012039 -0.304194 -0.869869 0.474305 -0.135511
-0.093117 0.214591 -0.283698 0.000000 1.000000 0.000000
-0.133474 0.205123 0.037939 0.951754 -0.294808 0.085160
-0.063137 0.205289 -0.011879 0.000000 -1.000000 -0.000000
0.000513 -0.021317 0.290905 0.001286 -0.989145 -0.146939
-0.004508 -0.020671 -0.302707 0.999924 -0.000431 -0.012308
0.002873 -0.009755 0.297266 0.245242 0.944196 0.219888
-0.006564 0.018945 -0.163311 -0.998875 0.020061 -0.042961
0.327951 -0.051186 0.003387 -0.689127 0.130310 -0.712828
0.097560 0.214591 -0.071967 0.000000 -1.000000 0.000000
0.172634 0.015443 0.005863 -0.029066 -0.020057 -0.999376
0.141171 0.099995 0.009989 0.555548 0.000000 -0.831484
0.322153 -0.025128 0.004919 -0.233773 -0.088662 -0.968240
0.258991 0.214591 -0.114975 0.000000 -1.000000 0.000000
0.305331 -0.015124 -0.003343 -0.009445 -0.020085 0.999754
-0.247223 -0.011881 0.004470 0.032666 0.000000 -0.999466
-0.005030 -0.027216 0.320657 0.962532 0.035895 0.268782
0.185351 -0.002605 -0.006996 -0.032156 0.000000 0.999483
0.183844 0.214591 -0.251526 0.000000 1.000000 0.000000
0.248790 0.205289 -0.124402 -0.000000 1.000000 -0.000000
0.220575 0.214591 0.256473 0.000000 1.000000 0.000000
0.146035 0.214591 -0.153781 0.000000 1.000000 0.000000
-0.116036 0.214591 -0.208087 0.000000 -1.000000 0.000000
-0.284550 -0.006838 -0.002928 -0.220518 0.943455 -0.247518
0.003187 -0.036988 0.326388 0.696289 0.120671 0.707545
-0.002113 0.133139 0.156674 0.195143 0.000000 -0.980775
0.247011 0.214591 -0.007992 0.000000 1.000000 -0.000000
-0.162499 0.214591 -0.044128 0.000000 1.000000 0.000000
0.003862 0.205289 -0.265958 -0.000000 -1.000000 0.000000
0.199829 0.214591 0.241624 0.000000 1.000000 -0.000000
0.003609 -0.018494 -0.310024 0.908195 0.033345 0.417216
0.150567 -0.004865 0.009870 0.555654 0.000000 0.831414
0.051705 0.214591 -0.021323 0.000000 -1.000000 0.000000
-0.135586 -0.002904 -0.002218 -0.980810 0.000000 0.194966
0.009794 0.202470 -0.109367 0.951756 -0.294804 0.085159
-0.004626 -0.036180 0.319534 0.961884 -0.033210 0.271433
0.135980 0.025192 0.014658 0.707087 0.000037 0.707126
0.165681 -0.005841 -0.000438 0.007767 -0.999970 0.000134
-0.046842 0.214591 0.110944 0.000000 -1.000000 -0.000000
0.003411 -0.020617 -0.309426 -0.903366 -0.036313 -0.427331
0.023574 0.205289 0.242989 -0.000000 -1.000000 -0.000000
-0.036783 0.205319 0.156727 0.085149 0.294770 -0.951767
-0.088901 0.020056 -0.062674 -0.707110 -0.000052 -0.707104
-0.133952 0.027110 0.006795 0.707081 -0.000071 -0.707132
0.282005 0.214591 -0.107784 0.000000 -1.000000 0.000000
-0.000213 -0.011468 -0.208532 0.000000 -0.991962 0.126539
0.000537 -0.010657 0.303743 -0.242108 -0.944961 -0.220074
-0.002122 0.117448 0.156673 0.195143 0.000000 -0.980775
0.081136 0.205289 0.035259 -0.000000 1.000000 0.000000
-0.111362 0.214591 -0.222910 0.000000 1.000000 0.000000
-0.003264 -0.030555 -0.314506 0.257070 0.203493 -0.944725
0.228205 0.205289 -0.218641 -0.000000 1.000000 -0.000000
-0.215831 0.214591 -0.251598 0.000000 -1.000000 0.000000
0.190852 0.214591 0.222036 0.000000 1.000000 -0.000000
0.240857 0.212756 -0.240456 0.757991 0.000000 -0.652264
0.007038 0.032417 -0.138029 -0.555655 0.000000 -0.831413
0.001647 -0.024622 -0.321569 0.253523 0.410674 -0.875827
0.119460 0.205289 -0.227418 -0.000000 -1.000000 -0.000000
-0.327371 -0.034315 -0.001306 0.949298 -0.148876 0.276891
-0.329798 -0.055685 0.002558 -0.617007 0.701711 0.356236
0.113941 0.214591 -0.100276 0.000000 -1.000000 0.000000
-0.099602 0.205289 -0.319055 0.000000 -1.000000 -0.000000
0.072594 0.214591 -0.293779 0.000000 -1.000000 0.000000
0.324414 -0.052983 0.005451 0.242777 -0.117741 0.962910
0.006300 -0.002605 0.185408 -0.999725 0.000001 -0.023433
-0.172152 -0.006537 0.002663 -0.111875 0.993720 -0.001924
0.286339 0.214591 0.150932 0.000000 1.000000 -0.000000
-0.170589 0.003683 0.006939 0.075496 0.000000 -0.997146
-0.316248 -0.020882 0.004249 0.094280 -0.244939 0.964944
-0.290970 -0.008305 -0.002886 -0.110122 0.453516 -0.884418
-0.135355 0.023830 -0.016220 -0.707107 -0.000001 -0.707107
-0.135844 0.105035 0.003006 0.980819 0.000000 0.194922
0.222024 0.214591 0.183516 0.000000 -1.000000 -0.000000
0.311769 0.214591 -0.110694 0.000000 1.000000 0.000000
-0.306611 -0.023730 -0.000394 -0.180351 0.983600 -0.002264
-0.294697 -0.018699 0.002964 0.028039 0.000000 -0.999607
0.004850 -0.009123 -0.226063 -0.999260 0.000000 0.038455
0.114962 0.205393 -0.010220 -0.085156 -0.294799 -0.951757
-0.167348 0.018908 0.006783 0.274372 -0.443313 -0.853343
0.004563 -0.037930 0.325194 -0.696288 -0.120848 -0.707516
0.172630 0.005235 0.005949 -0.026627 0.000000 -0.999645
0.001688 -0.020363 0.284496 0.001280 -0.989145 -0.146939
-0.004399 -0.024086 -0.307803 -0.984670 -0.133247 0.112558
0.178582 0.204263 -0.009812 -0.085160 0.294813 0.951753
-0.194658 0.205289 0.205173 -0.000000 1.000000 0.000000
0.001051 -0.055373 -0.316639 -0.342102 0.000000 -0.939663
0.309421 -0.024100 0.003263 -0.188923 -0.100665 0.976819
0.191591 0.011265 -0.006717 0.034599 0.020077 -0.999200
-0.168526 0.015788 -0.007219 -0.173068 0.016301 -0.984775
0.000762 0.191179 -0.204585 -0.000000 0.960722 0.277514
0.290813 -0.021317 -0.001432 -0.146923 -0.989145 -0.002558
0.319283 -0.032586 -0.003877 0.694466 0.018615 0.719285
0.136757 0.205289 0.203693 -0.000000 1.000000 0.000000
0.162728 0.023526 0.005290 0.316071 0.916633 0.244709
0.167910 0.013155 0.006686 -0.154151 0.000000 -0.988047
-0.237604 0.214591 0.239222 0.000000 -1.000000 -0.000000
-0.297376 -0.019352 -0.003690 -0.014451 0.000000 -0.999896
-0.002753 -0.016188 0.317101 -0.701292 0.599437 0.385830
-0.109876 0.184123 0.006363 -0.085160 0.294807 -0.951754
-0.169938 0.205289 0.090122 -0.000000 -1.000000 0.000000
0.312967 -0.016116 0.004345 -0.053757 -0.675299 -0.735582
-0.313170 -0.025078 -0.002828 -0.076165 -0.980439 -0.181491
0.173074 0.214591 0.159760 0.000000 1.000000 -0.000000
0.102321 0.205289 0.303646 -0.000000 -1.000000 0.000000
-0.312401 -0.022798 0.003072 0.322050 -0.409448 0.853602
-0.297418 -0.019396 -0.003689 -0.014482 -0.000000 -0.999895
-0.022537 0.205289 0.246667 -0.000000 1.000000 0.000000
-0.006729 0.214591 0.006151 0.000000 1.000000 -0.000000
0.070365 0.214591 -0.130935 0.000000 -1.000000 0.000000
0.310341 -0.019660 -0.003750 0.423968 0.256961 0.868460
0.319947 -0.020964 -0.003974 -0.251114 -0.130432 0.959129
-0.248396 0.205289 -0.055805 0.000000 1.000000 -0.000000
-0.008136 0.177135 0.156506 0.593998 0.542525 -0.593998
-0.328017 -0.055463 0.003767 -0.458040 0.701608 0.545844
0.317605 -0.036197 -0.002186 0.694603 0.008779 0.719339
0.259480 -0.005968 -0.004709 0.035104 0.012449 -0.999306
0.317511 -0.036197 0.003170 0.969339 0.036507 -0.243000
-0.313645 -0.025554 -0.001066 0.206548 -0.927160 0.312590
-0.248454 0.205289 -0.213143 0.000000 1.000000 -0.000000
0.001765 -0.015431 -0.304530 0.992612 0.115692 -0.036572
-0.000887 -0.051182 -0.326351 0.257752 -0.111572 -0.959748
-0.322924 -0.040283 0.004389 0.247476 0.063923 0.966783
0.169333 0.214591 0.262550 0.000000 1.000000 -0.000000
-0.005370 -0.034383 -0.316962 -0.964214 0.033223 0.263034
0.004062 -0.010863 0.284517 0.999523 0.020073 0.023482
-0.290264 -0.007634 0.000239 -0.222288 0.945703 0.237138
-0.006114 0.000505 -0.179665 -0.999894 0.000000 -0.014572
0.329379 -0.055463 -0.000701 0.000000 1.000000 0.000000
-0.044884 0.214591 -0.251999 0.000000 -1.000000 0.000000
0.035503 0.214591 0.031410 0.000000 -1.000000 -0.000000
-0.249457 0.205289 0.144999 -0.000000 1.000000 0.000000
-0.117594 0.214591 0.038025 0.000000 1.000000 -0.000000
-0.070392 0.214591 0.072644 0.000000 1.000000 -0.000000
0.317384 -0.046716 0.000489 0.952426 0.134056 0.273704
-0.166032 0.007485 0.007284 -0.060779 0.000001 0.998151
-0.106605 0.205289 -0.013207 0.000000 1.000000 -0.000000
-0.185970 0.205289 0.005862 -0.000000 -1.000000 -0.000000
-0.012434 0.214591 0.025250 0.000000 1.000000 -0.000000
-0.247141 -0.016061 -0.000230 -0.126533 0.991960 -0.002208
0.314176 -0.025191 -0.002231 0.450149 0.542314 0.709409
-0.194301 0.205289 0.135597 -0.000000 -1.000000 0.000000
0.308672 -0.024119 -0.001504 0.182356 0.982584 0.035678
-0.123973 -0.005393 0.016774 -0.707107 -0.000026 0.707107
0.323345 0.214591 -0.020227 0.000000 1.000000 0.000000
-0.160195 0.025965 -0.000356 0.311830 -0.919200 0.240485
-0.005304 -0.021980 0.317353 0.959637 0.227396 0.165496
0.214066 0.205289 0.250292 -0.000000 -1.000000 0.000000
-0.122119 0.205289 0.062383 -0.000000 -1.000000 0.000000
0.006907 0.000327 0.168213 0.997778 0.000000 0.066619
0.119875 0.205289 0.276119 -0.000000 -1.000000 0.000000
-0.105468 0.214591 -0.159466 0.000000 1.000000 0.000000
-0.134833 0.027491 -0.006218 -0.174035 -0.969239 0.174034
0.311035 -0.024638 0.002062 -0.191807 -0.979978 0.053421
-0.218902 0.205289 -0.225813 0.000000 -1.000000 -0.000000
-0.318904 -0.051242 -0.003872 -0.963716 0.114317 0.241212
0.006300 -0.008204 0.185408 0.999725 0.000001 0.023434
0.308862 -0.012534 0.001888 -0.235279 -0.940371 -0.245655
0.322506 -0.040283 0.006195 0.244326 0.129454 0.961013
0.003770 0.205289 -0.169375 -0.000000 -1.000000 0.000000
-0.160056 0.001229 -0.008343 -0.111695 0.000000 -0.993743
-0.184738 -0.002513 -0.006279 0.026555 -0.000000 0.999647
-0.204028 0.205289 0.248588 -0.000000 1.000000 0.000000
-0.234808 0.205289 -0.119492 0.000000 -1.000000 -0.000000
0.310800 -0.015016 0.003501 0.033040 0.610009 0.791705
-0.205093 0.214591 0.060155 0.000000 -1.000000 -0.000000
-0.004631 0.021325 -0.165664 -0.217259 0.851674 -0.476918
-0.101221 0.214591 0.236376 0.000000 1.000000 -0.000000
-0.208148 0.202013 0.009504 -0.085171 -0.294814 0.951751
0.294583 -0.021595 0.003080 0.014482 0.000000 0.999895
0.003545 -0.022720 -0.310206 -0.854446 0.312001 -0.415425
0.009771 0.144618 0.150657 -0.831485 0.000000 -0.555546
0.148924 0.205289 -0.120547 -0.000000 1.000000 -0.000000
0.007682 0.203428 0.153784 0.555571 0.000000 0.831469
-0.034812 0.205289 -0.310143 -0.000000 1.000000 0.000000
-0.002898 -0.048430 0.318499 -0.251139 -0.129774 -0.959212
0.327520 -0.057324 0.005725 -0.456369 0.703500 -0.544809
0.172863 -0.006634 -0.007398 -0.111623 -0.993749 -0.001949
-0.287674 0.205289 -0.177436 0.000000 1.000000 -0.000000
-0.143405 0.214591 0.118232 0.000000 1.000000 -0.000000
-0.145990 0.205289 0.250726 -0.000000 -1.000000 0.000000
-0.320589 -0.046691 0.003883 0.687440 -0.137703 0.713066
0.013861 0.022247 -0.131428 0.548269 0.617475 0.564025
0.185313 -0.008204 -0.004897 0.124714 0.992190 0.002177
-0.134675 0.022785 -0.016900 0.707113 -0.000003 0.707101
0.055551 0.214591 0.161898 0.000000 1.000000 -0.000000
-0.065065 0.214591 -0.014488 0.000000 -1.000000 0.000000
0.003774 -0.037977 -0.317214 -0.965211 -0.026578 -0.260118
-0.148589 0.205289 -0.013319 -0.000000 -1.000000 -0.000000
-0.303557 0.205289 -0.092802 0.000000 1.000000 -0.000000
0.053100 0.214591 -0.009650 0.000000 1.000000 0.000000
-0.185912 0.205289 0.018885 -0.000000 -1.000000 0.000000
-0.275146 0.205289 -0.021491 -0.000000 1.000000 -0.000000
-0.004510 0.020006 -0.168017 -0.848981 0.441024 -0.291082
-0.001024 -0.037944 -0.314572 0.260691 0.043918 -0.964423
-0.263998 0.205289 0.209123 -0.000000 1.000000 0.000000
-0.020544 0.205289 0.291255 -0.000000 1.000000 0.000000
-0.005501 0.000101 -0.226063 0.999918 0.000000 0.012832
-0.002727 -0.034321 0.326533 -0.707704 0.130474 0.694357
-0.153573 0.013353 -0.008603 0.555654 -0.000000 0.831414
0.314228 -0.019872 0.005865 -0.158063 -0.211218 -0.964574
-0.020899 0.205289 0.080502 -0.000000 1.000000 0.000000
-0.320166 -0.020964 0.003327 -0.237354 0.140382 0.961226
0.280342 0.205289 0.131684 -0.000000 -1.000000 0.000000
0.210038 0.010124 -0.004783 -0.221499 -0.946648 0.234084
0.160633 0.205289 -0.182886 -0.000000 -1.000000 -0.000000
-0.170218 0.020127 -0.005159 0.361155 -0.423904 0.830585
-0.088408 0.214591 -0.329041 0.185912 0.000000 0.982566
-0.043812 0.205289 -0.047058 0.000000 -1.000000 -0.000000
0.209848 0.205289 -0.221628 -0.000000 -1.000000 -0.000000
-0.004631 -0.055637 -0.325526 0.458331 -0.700175 0.547437
-0.317058 -0.036203 -0.001126 0.960269 -0.036504 0.276678
-0.097140 0.214591 -0.089938 0.000000 1.000000 0.000000
0.070944 0.214591 -0.036752 0.000000 -1.000000 0.000000
0.216653 0.205289 -0.008176 -0.000000 -1.000000 0.000000
0.182050 0.205289 0.225815 -0.000000 -1.000000 0.000000
-0.003992 -0.007419 -0.176618 0.000000 0.992190 -0.124733
0.004641 -0.006608 -0.170140 0.000000 0.993718 -0.111915
0.077560 0.214591 0.312546 0.000000 1.000000 -0.000000
-0.000626 0.025965 0.160091 0.232715 0.920879 0.312770
-0.305500 -0.013167 -0.003514 -0.029410 0.020055 -0.999366
0.134309 0.214591 0.163888 0.000000 1.000000 -0.000000
0.027052 0.214591 -0.051482 0.000000 -1.000000 0.000000
-0.317031 -0.026406 -0.005097 -0.602282 0.428452 0.673561
0.217921 0.214591 0.256023 0.000000 1.000000 -0.000000
-0.007040 0.205289 -0.023470 0.000000 -1.000000 -0.000000
0.313373 -0.023965 0.004200 0.605080 -0.507277 0.613635
-0.049735 0.214591 0.068722 0.000000 -1.000000 -0.000000
0.021880 0.205289 -0.150658 -0.000000 -1.000000 -0.000000
0.256832 0.214591 0.187046 0.000000 1.000000 -0.000000
-0.005963 0.205289 -0.181156 -0.000000 1.000000 0.000000
-0.004026 -0.006634 -0.170370 0.000000 -0.992190 0.124733
0.056246 0.205289 0.138817 -0.000000 -1.000000 0.000000
-0.130537 0.024312 0.010210 -0.455865 -0.764443 -0.455865
0.233949 0.205289 0.148346 -0.000000 -1.000000 0.000000
0.320896 -0.053566 -0.002348 -0.866010 0.000000 -0.500027
-0.001421 -0.032176 -0.314356 -0.256990 -0.205771 0.944253
0.260450 0.214591 -0.153998 0.000000 1.000000 0.000000
-0.006446 0.017796 -0.165664 -0.859844 0.442060 -0.255445
-0.056474 0.205289 0.312611 -0.000000 1.000000 0.000000
0.066574 0.205289 0.041941 -0.000000 1.000000 0.000000
0.015909 0.205289 -0.331340 -0.000000 1.000000 -0.000000
-0.111704 0.205289 -0.023898 0.000000 -1.000000 -0.000000
0.002971 0.108634 -0.156746 0.194702 0.000000 -0.980862
0.257562 0.205289 0.187022 -0.000000 1.000000 0.000000
-0.003709 -0.040326 -0.315386 -0.258618 -0.024291 0.965674
-0.012964 0.205289 -0.276217 -0.000000 1.000000 0.000000
0.320945 -0.018277 0.000551 -0.734582 -0.622578 -0.269791
-0.176751 0.214591 -0.210768 0.000000 -1.000000 0.000000
-0.315156 0.214591 0.004362 0.000000 1.000000 0.000000
-0.123285 0.214591 -0.186451 0.000000 1.000000 0.000000
0.001122 -0.024213 -0.307063 0.127877 -0.986074 0.106332
0.135860 0.205289 0.311878 -0.330280 0.000000 -0.943883
-0.005979 -0.053422 -0.320989 -0.959119 -0.112289 -0.259773
0.005127 0.023526 0.162992 -0.871139 -0.452930 -0.189660
0.001837 -0.037994 -0.315274 0.707098 -0.004391 0.707102
-0.004940 -0.005857 -0.161232 -0.000000 0.999970 0.007716
0.136278 0.025943 -0.013648 -0.365080 0.851889 -0.375502
-0.156629 0.202747 -0.004591 0.831484 0.000000 0.555549
-0.137384 0.214591 0.223283 0.000000 1.000000 -0.000000
0.074653 0.205289 -0.131488 -0.000000 -1.000000 -0.000000
0.318765 -0.030932 0.004877 0.277276 0.035060 -0.960150
-0.257268 0.214591 0.205823 0.000000 -1.000000 -0.000000
-0.004631 0.021325 -0.165664 0.859844 -0.442060 0.255445
-0.001775 0.025211 0.161408 -0.237453 0.917747 0.318364
0.328931 -0.046918 0.000059 -0.967363 0.078762 0.240845
0.003459 -0.026604 -0.315082 0.957820 -0.185279 0.219665
-0.001010 0.181422 -0.157282 0.194702 -0.000000 0.980862
-0.111258 0.214591 0.304168 0.000000 -1.000000 -0.000000
0.010034 0.026239 -0.134261 0.333805 0.877841 0.343465
-0.023711 0.205289 -0.274706 -0.000000 1.000000 0.000000
0.005162 -0.044943 -0.320816 -0.963544 -0.056703 -0.261473
-0.191815 0.001899 0.006148 0.032156 0.000000 -0.999483
-0.267703 0.214591 -0.118588 0.000000 -1.000000 0.000000
