0.045034 0.008960 -0.017379 0.994102 0.107911 0.010759
-0.014446 -0.026437 -0.002806 0.066556 -0.997604 -0.018902
-0.050585 0.006734 0.020775 -0.999453 0.028027 0.017536
0.004832 -0.011438 0.029229 -0.681532 -0.098295 0.725156
0.045870 -0.006312 0.020220 0.997276 0.073358 0.007667
0.030823 0.003768 0.028960 -0.045814 0.014417 0.998846
0.026095 0.026697 -0.019204 -0.050304 0.998442 0.024158
-0.023431 0.023565 -0.039051 -0.033303 0.997948 0.054683
0.024574 0.023163 0.029576 -0.035465 -0.048516 0.998193
0.036985 0.023585 0.023959 0.547318 0.836869 0.009674
0.045117 0.001492 -0.043054 0.980830 0.168457 -0.097956
-0.012070 -0.026039 -0.036750 0.079326 -0.996817 0.008015
-0.012459 -0.026138 -0.038680 0.077409 -0.996184 0.040314
0.040365 0.020710 -0.000122 0.769840 0.638231 0.002665
-0.007191 -0.025223 -0.046506 -0.030951 -0.991114 0.129364
0.022986 -0.024028 -0.007338 0.055709 -0.998232 -0.020710
-0.013987 0.025401 0.031769 0.049549 -0.947766 0.315094
0.013157 0.024613 -0.049591 -0.000588 0.160682 -0.987006
-0.051299 0.002998 0.032291 0.975488 -0.001733 0.220047
0.019880 0.025880 0.029540 0.013509 -0.370738 0.928639
-0.033900 -0.027507 0.012462 -0.119339 -0.992613 -0.021848
0.044618 0.002709 -0.044457 0.995932 0.056654 -0.070074
0.011556 0.025490 -0.017051 -0.077821 0.996962 -0.003320
0.012737 0.025544 -0.008722 -0.079766 0.996745 0.011686
0.044397 -0.006272 0.029785 -0.074824 0.019925 0.996998
0.006273 0.025454 -0.038845 -0.090275 0.993287 0.072335
-0.001979 -0.025816 0.011914 0.070503 -0.997423 -0.013253
0.008657 0.022632 -0.048976 0.013986 -0.555071 -0.831686
0.046053 -0.007385 -0.012902 0.998193 -0.060080 -0.000859
0.021842 0.026262 0.024366 -0.042142 0.996438 -0.073043
-0.011349 -0.027663 0.030595 -0.053432 0.922705 0.381785
-0.000397 -0.022446 0.029276 -0.004020 0.080306 0.996762
-0.032507 -0.027608 -0.008158 0.013533 -0.999688 -0.021000
-0.007906 0.024332 0.008102 -0.078973 0.996752 -0.015756
0.007328 -0.010574 0.028600 0.744372 0.112639 0.658197
-0.045230 -0.021792 0.030119 0.093467 0.158974 0.982849
0.008983 -0.017963 0.029077 -0.443585 -0.422123 0.790597
0.019797 -0.011242 -0.046959 -0.022980 0.044793 -0.998732
-0.041247 -0.025068 -0.020667 -0.487529 -0.873106 -0.001242
0.044776 -0.013035 -0.024532 0.930471 -0.366238 -0.009607
-0.001750 -0.013496 -0.046854 -0.000040 0.077136 -0.997021
0.008194 0.025206 -0.005405 -0.059836 0.998194 0.005330
0.021516 0.026081 0.015150 -0.074508 0.997212 -0.004003
-0.034903 -0.027452 -0.010287 -0.144177 -0.989340 -0.020461
0.000701 -0.027770 0.029826 0.006804 -0.840749 -0.541383
-0.037642 0.022712 0.006890 -0.215759 0.976440 0.003588
0.035476 0.024914 -0.039487 0.492070 0.870499 0.009904
0.045258 -0.011906 -0.007045 0.956112 -0.292989 0.002508
-0.028587 -0.027410 -0.010745 0.071237 -0.997459 -0.000666
-0.007865 -0.025659 -0.043563 0.034689 -0.954658 -0.295676
-0.000454 -0.025129 -0.027834 0.079831 -0.996758 -0.010045
-0.021738 0.014519 0.029250 0.026146 -0.053196 0.998242
-0.007722 0.002277 0.028314 0.049798 -0.004789 0.998748
0.044972 -0.012402 -0.040620 0.939299 -0.342941 -0.010477
-0.046067 -0.015751 0.029918 0.065038 0.049094 0.996674
-0.052917 -0.003706 0.032843 -0.948571 -0.069748 0.308785
0.005973 0.025275 -0.030157 -0.075120 0.997162 0.005044
0.034943 0.025116 -0.030848 0.460869 0.887455 0.004804
0.026989 -0.023773 -0.034742 0.041383 -0.999067 0.012335
0.018030 0.008671 0.028913 0.722784 -0.689012 0.053342
-0.001909 -0.018149 0.028949 -0.001701 0.064290 0.997930
-0.047167 -0.018998 -0.010356 -0.866267 -0.499507 0.008602
-0.013358 -0.026048 -0.029353 0.078361 -0.996904 0.006533
-0.033216 -0.019544 0.029748 0.100216 0.039512 0.994181
0.023503 0.024405 -0.049304 -0.004505 -0.193110 -0.981167
-0.011146 0.024131 -0.031303 -0.047231 0.998773 0.014871
0.013247 -0.024314 -0.027280 0.043098 -0.999043 0.007394
0.025467 -0.023886 -0.035428 0.033519 -0.999429 0.004243
0.023284 0.026836 0.027472 -0.072450 0.944801 -0.319533
0.021463 -0.024008 -0.016205 0.047049 -0.998867 -0.007208
0.030354 0.026301 0.000009 0.156232 0.987720 0.000616
0.027514 0.026554 0.010260 0.011317 0.999812 0.015723
0.007654 -0.025249 0.011782 0.057000 -0.998116 -0.022715
-0.008250 -0.017284 0.028888 0.004244 0.048550 0.998812
-0.005662 -0.025493 -0.022952 0.068534 -0.997649 0.000771
-0.040469 -0.028287 0.029701 -0.318621 -0.804939 -0.500555
0.016344 -0.017272 -0.047318 -0.013723 0.081975 -0.996540
-0.013161 -0.022821 -0.048640 -0.009793 0.687245 -0.726360
0.025944 -0.023837 -0.045263 0.023157 -0.999568 -0.018086
0.022075 0.026003 0.009816 -0.089712 0.995909 -0.010841
-0.019810 0.023945 0.021285 -0.041904 0.997642 -0.054348
0.009631 0.000597 0.029937 -0.687114 0.725212 0.044074
0.045696 -0.001798 -0.007154 0.997343 0.072847 0.000224
-0.013335 -0.025867 -0.045494 0.080481 -0.996746 0.004510
0.010388 -0.025010 0.007725 0.054778 -0.998423 -0.012275
0.006382 -0.024757 -0.035464 0.067128 -0.996066 0.057849
-0.012179 -0.025972 -0.021683 0.073245 -0.997313 -0.001689
-0.038186 0.022739 -0.041874 -0.281941 0.959422 0.004230
0.039146 0.006169 -0.047813 -0.155230 -0.020929 -0.987657
-0.049724 -0.007187 0.005376 -0.998215 -0.053575 0.026374
0.043207 0.016298 -0.003986 0.912206 0.409715 -0.003645
0.035476 0.024914 -0.039487 0.492070 0.870499 0.009904
0.014202 0.002262 -0.046622 -0.026549 -0.017819 -0.999489
0.045346 -0.011316 0.008714 0.961010 -0.276345 -0.009660
0.022373 0.026421 -0.016689 -0.078714 0.996878 0.006237
0.004082 0.025053 0.014684 -0.055057 0.998480 0.002444
0.035358 -0.022617 -0.016967 0.345495 -0.938369 -0.009830
0.000045 0.024765 -0.022834 -0.085805 0.996298 -0.005257
-0.004176 0.017089 0.029187 0.036498 -0.049522 0.998106
-0.045364 -0.021602 -0.008326 -0.771488 -0.636208 0.006771
0.014292 -0.024728 0.004121 0.054919 -0.998334 -0.017678
0.033121 0.025960 -0.034090 0.357189 0.934029 0.002189
0.036872 0.023767 -0.005057 0.531458 0.847056 -0.007035
0.002231 -0.027061 0.031701 -0.066748 0.871803 0.485288
-0.034423 0.013331 0.029662 0.056420 -0.051440 0.997081
-0.013284 -0.019631 -0.047430 -0.003644 0.127485 -0.991834
-0.028331 -0.027315 -0.030201 0.087281 -0.996101 0.012827
0.017416 0.006157 0.028530 0.085785 -0.237933 0.967486
-0.045862 0.011448 0.030118 0.053249 -0.044766 0.997577
0.002356 0.025449 0.026073 -0.057321 0.985069 -0.162339
-0.011062 0.024223 -0.007919 -0.063049 0.997999 0.004835
-0.032005 -0.030538 0.033026 0.169285 -0.583456 0.794306
0.044198 -0.015354 0.024943 0.871422 -0.490392 -0.011788
-0.003401 0.015879 0.029060 0.049483 -0.072874 0.996113
-0.018915 0.023760 0.010825 -0.058706 0.998273 -0.002321
-0.050546 0.007141 0.011831 -0.996348 0.084437 0.012674
0.037018 0.023658 0.003382 0.538074 0.842897 0.000739
-0.043390 -0.023638 -0.041790 -0.633135 -0.774034 -0.003253
0.028218 0.027169 -0.041132 0.061864 0.997760 0.025439
0.039880 0.021291 0.009636 0.729169 0.684210 0.012978
0.003409 -0.020856 -0.047611 -0.004578 0.458197 -0.888839
0.042750 -0.017508 0.013513 0.815648 -0.578475 -0.009188
-0.002309 -0.025918 0.015752 0.071924 -0.997406 -0.002831
-0.007956 -0.025698 -0.029108 0.074902 -0.997118 0.012044
-0.025658 -0.027246 0.012006 0.053659 -0.998042 -0.032132
0.007771 -0.000534 0.028031 -0.196024 0.179578 0.964016
-0.031402 -0.027774 0.009340 0.038377 -0.999256 0.003721
0.006421 -0.021464 -0.048355 -0.034857 0.624314 -0.780395
-0.040469 -0.028287 0.029701 -0.318621 -0.804939 -0.500555
-0.002141 0.024571 0.007755 -0.068573 0.997555 0.013459
0.032344 -0.022306 0.029758 -0.040663 -0.229329 0.972499
0.006789 -0.027245 0.029293 0.077653 -0.873523 -0.480549
-0.048883 -0.015002 -0.020557 -0.955319 -0.295509 0.006393
0.044662 0.009982 -0.046085 0.991602 0.129292 -0.002915
0.029072 -0.012293 0.028916 0.477458 0.072435 0.875664
-0.003512 -0.025470 -0.011038 0.067287 -0.997642 -0.013554
-0.025453 -0.025393 -0.049596 0.019280 -0.052130 -0.998454
0.033702 -0.023132 -0.040916 0.304302 -0.952570 0.003289
-0.008927 0.024314 0.011621 -0.066120 0.997810 0.001721
-0.052062 -0.004361 0.030482 -0.930171 -0.050522 -0.363632
0.011585 -0.025378 0.023923 0.050642 -0.996682 -0.063726
-0.047496 0.018712 0.032725 0.627796 -0.452920 0.633037
0.012353 -0.021757 -0.049074 -0.036770 0.574082 -0.817972
0.044364 -0.013810 -0.041860 0.900201 -0.434565 -0.028138
-0.034565 -0.014595 -0.047281 0.035847 0.013821 -0.999262
-0.050559 0.002227 -0.003429 -0.996533 -0.082991 0.005849
-0.024252 0.023579 -0.027635 -0.024456 0.999519 -0.019086
-0.044977 -0.011290 0.029747 0.035683 0.025999 0.999025
0.037173 -0.021694 -0.028201 0.452296 -0.891663 -0.019124
-0.031214 -0.027696 -0.042773 0.061788 -0.998089 -0.000296
0.004892 0.024982 -0.002877 -0.058899 0.998251 -0.005080
0.010467 -0.000054 0.031393 0.061889 -0.049862 0.996837
-0.033534 0.023155 0.001194 -0.049392 0.998232 -0.033065
0.007785 -0.024615 -0.030815 0.041583 -0.999034 -0.014184
-0.047938 0.015396 0.016370 -0.853016 0.521855 0.005639
-0.003054 -0.025491 -0.008177 0.059293 -0.998078 -0.018011
0.042466 0.020509 0.030901 -0.705459 -0.474650 0.526341
0.005183 -0.013073 0.028800 -0.515750 -0.262259 0.815611
-0.048467 -0.016198 0.005859 -0.944963 -0.327099 -0.007193
0.000325 0.024764 0.000647 -0.054946 0.998483 -0.003527
-0.041543 0.022408 0.030419 0.269151 -0.572177 0.774707
-0.008390 0.000846 0.028450 0.064438 0.019003 0.997741
0.002822 0.005805 0.028479 0.007836 -0.035019 0.999356
0.040791 0.020184 -0.010350 0.783200 0.621725 0.007512
-0.047917 0.012741 -0.047524 -0.573166 0.181748 -0.799030
0.030936 0.014615 0.031139 -0.050039 -0.339069 0.939430
0.036725 0.007246 -0.047668 -0.061309 -0.038897 -0.997361
-0.052896 0.012104 0.032617 -0.952659 0.182979 0.242816
0.027329 -0.022973 0.029727 -0.061084 -0.051418 0.996807
0.047844 -0.004752 0.030262 0.892940 -0.035593 -0.448767
0.008307 -0.025379 0.019760 0.083275 -0.995505 -0.045105
-0.003507 0.018934 -0.047404 -0.005709 -0.138884 -0.990292
-0.042011 -0.024526 -0.004597 -0.525121 -0.850840 0.017885
-0.010545 -0.026291 0.007184 0.065095 -0.997792 -0.013186
0.038212 0.023036 -0.039756 0.623180 0.782077 0.001350
0.044053 0.009709 0.029876 -0.176858 -0.047429 0.983093
-0.030081 -0.028519 0.031271 -0.035160 0.887813 0.458860
-0.016052 -0.027067 0.023707 0.051353 -0.998012 -0.036537
-0.004633 -0.025419 -0.025031 0.073984 -0.997259 -0.000781
-0.041958 0.014781 -0.047938 0.061508 -0.036156 -0.997452
0.034810 -0.022708 -0.025492 0.320431 -0.946838 -0.028657
-0.023523 0.023574 -0.007436 -0.046847 0.998823 0.012535
0.041445 0.007687 -0.049096 -0.420423 -0.082255 -0.903592
-0.021513 -0.026760 -0.012978 0.075245 -0.997129 -0.008452
-0.006370 0.024835 -0.041616 -0.087144 0.996156 0.008858
-0.019951 -0.012567 -0.046911 0.013698 0.062235 -0.997968
0.042074 -0.012809 0.031732 0.340780 0.029735 0.939673
-0.049162 0.013147 -0.038600 -0.911290 0.411696 0.007607
-0.038311 -0.017148 0.029738 -0.014717 0.030688 0.999421
0.007388 -0.026113 0.027007 0.043767 -0.929993 -0.364963
0.028085 -0.023711 -0.028369 0.043076 -0.999072 0.000412
0.025205 0.009536 0.028864 -0.011597 -0.039415 0.999156
0.045570 -0.001020 -0.043212 0.993958 0.109351 -0.009454
-0.049273 -0.013430 -0.017656 -0.979724 -0.199734 -0.015755
0.001885 -0.022429 0.029255 -0.000639 0.072928 0.997337
-0.048133 0.013691 -0.047033 -0.726148 0.377143 -0.574867
-0.019288 -0.003594 0.028606 -0.029630 0.019369 0.999373
0.042152 -0.020644 0.031215 -0.645760 0.593027 0.480951
0.022429 0.026549 -0.030622 -0.072680 0.997233 0.015605
-0.020910 -0.023102 -0.048343 0.011470 0.640091 -0.768213
0.045228 0.005152 -0.008607 0.996511 0.080859 0.020700
-0.036746 0.022757 -0.017714 -0.183044 0.983054 -0.010019
0.020684 0.006654 0.028575 -0.075058 0.030266 0.996720
-0.024558 -0.003668 0.028908 0.016793 0.010797 0.999801
-0.032498 0.023303 -0.026432 -0.072177 0.997382 0.004434
-0.017809 -0.020511 0.029162 0.020168 0.068336 0.997458
0.020651 0.012614 0.031357 -0.468747 0.493776 0.732435
0.034838 0.025219 -0.032926 0.452319 0.891753 0.013578
-0.022740 0.023562 -0.035514 -0.050824 0.998693 -0.005405
-0.028507 0.020226 -0.048527 -0.056075 -0.471335 -0.880170
0.038253 0.022780 0.008712 0.625866 0.779917 0.004573
-0.049851 -0.005270 -0.047896 -0.957999 0.092219 -0.271539
0.006781 0.025228 -0.020620 -0.066731 0.997659 0.014955
0.011227 -0.024880 0.003555 0.053087 -0.998443 -0.017137
-0.049524 -0.011763 -0.024403 -0.992776 -0.119963 0.001967
-0.047146 -0.004309 -0.049291 0.244864 0.003533 -0.969551
-0.016672 -0.029854 0.032881 0.122123 -0.670979 0.731350
-0.048978 -0.014624 -0.009577 -0.959814 -0.279653 -0.023495
-0.052732 0.004880 0.030681 -0.906870 -0.080256 -0.413698
0.041020 -0.019487 0.001015 0.688722 -0.724989 -0.007266
-0.048030 -0.017400 0.024662 -0.920599 -0.390261 -0.013916
-0.025052 0.023567 0.016561 -0.041095 0.999134 -0.006571
-0.050645 0.004530 -0.020194 -0.999884 -0.011501 0.009962
-0.049560 -0.011092 -0.042667 -0.993139 -0.115688 -0.017057
0.012183 0.025627 -0.022405 -0.057933 0.998260 -0.011007
-0.030212 0.023373 -0.033094 -0.033364 0.999411 0.008055
0.000375 0.001159 0.028332 -0.010060 -0.012924 0.999866
0.018865 0.026046 -0.009339 -0.076889 0.996504 0.032684
0.044967 0.013741 0.027427 0.783574 0.249985 -0.568788
0.030272 0.026720 -0.032148 0.172118 0.984808 0.022985
-0.025991 -0.027243 -0.005166 0.073204 -0.997106 -0.020517
-0.013284 -0.019631 -0.047430 -0.003644 0.127485 -0.991834
-0.015831 -0.026588 0.003924 0.070672 -0.997492 -0.003882
-0.035960 0.022893 -0.005798 -0.130294 0.991447 0.007498
-0.050880 -0.005843 0.030559 0.798844 0.125315 0.588341
0.017855 -0.004175 0.028647 -0.019888 0.020431 0.999593
0.030828 0.026377 0.026743 0.188152 0.925166 -0.329646
0.007906 0.008654 0.028450 0.056641 -0.066799 0.996157
-0.013685 0.024071 -0.002527 -0.047154 0.998783 0.014455
0.019714 0.018230 0.029193 -0.013775 -0.056000 0.998336
0.029135 0.020430 -0.047642 -0.055867 -0.064860 -0.996329
-0.006873 0.015295 -0.047107 0.004982 -0.080057 -0.996778
-0.023183 -0.026828 -0.018777 0.091019 -0.995814 -0.008340
-0.025333 -0.027475 0.022813 0.045331 -0.998378 -0.034449
-0.051748 -0.003425 0.029150 -0.900300 -0.018047 -0.434897
-0.004079 -0.018259 0.028952 -0.001841 0.061851 0.998084
-0.028331 -0.027315 -0.030201 0.087281 -0.996101 0.012827
0.025045 -0.026016 0.030673 -0.060737 0.906846 0.417064
-0.021791 0.023891 0.021257 -0.036468 0.998427 -0.042577
-0.004681 -0.026337 0.022598 0.052938 -0.995634 -0.076875
0.018298 -0.024417 -0.001197 0.050427 -0.998479 -0.022306
0.013496 0.002366 0.028784 0.830826 -0.169902 -0.529963
0.026592 -0.002455 0.028891 -0.009199 0.050418 0.998686
0.033699 0.019675 0.029689 -0.029466 -0.075185 0.996734
-0.038447 0.023573 0.028016 -0.199727 0.818649 -0.538445
-0.033815 -0.024763 -0.049266 0.064819 0.447805 -0.891779
-0.017722 0.023936 0.015588 -0.046241 0.998871 0.010920
0.013059 -0.026608 0.032329 -0.048550 0.848337 0.527226
-0.045422 -0.021752 0.020506 -0.753874 -0.656816 0.016342
-0.048060 -0.000446 -0.049384 0.097390 0.093370 -0.990857
0.031915 -0.002689 0.029081 -0.395721 0.296456 0.869206
-0.011325 -0.008501 -0.046562 0.010339 0.045477 -0.998912
-0.003930 0.025008 -0.048015 -0.046472 0.955930 -0.289893
-0.023541 0.023905 0.029761 0.040153 -0.464803 0.884503
-0.030739 0.009804 -0.047099 0.025892 -0.016583 -0.999527
-0.050559 0.002227 -0.003429 -0.996533 -0.082991 0.005849
-0.003826 0.006508 0.028465 0.004531 -0.041483 0.999129
-0.022069 -0.000790 -0.046675 0.033099 -0.005066 -0.999439
-0.028507 0.020226 -0.048527 -0.056075 -0.471335 -0.880170
0.007144 -0.009106 0.029967 0.939231 0.054652 0.338908
0.005667 -0.006754 0.030986 -0.432253 0.095614 0.896669
0.007285 -0.007542 0.029018 0.848625 -0.177051 0.498487
0.028709 -0.007275 0.030411 -0.565731 0.504496 0.652252
-0.039994 0.022038 -0.039777 -0.366256 0.930502 0.004666
0.039327 -0.021217 0.024906 0.447561 -0.886649 -0.116375
0.043188 0.016446 0.003362 0.909471 0.415710 -0.006846
0.029676 -0.023672 -0.025037 0.037232 -0.999307 -0.000417
-0.040790 0.005087 0.029768 0.036703 -0.039855 0.998531
-0.016433 -0.011254 0.028817 0.012589 0.057712 0.998254
-0.028769 0.024691 0.030905 0.058240 -0.858024 0.510296
0.036379 0.017411 -0.047914 -0.248692 -0.192386 -0.949284
0.006393 -0.024279 -0.046100 0.061499 -0.997164 0.043371
0.019669 -0.024094 -0.028086 0.049735 -0.998728 -0.008297
-0.025200 -0.027265 -0.042285 0.085282 -0.995700 -0.036170
-0.010403 0.002455 -0.046446 0.018078 -0.019170 -0.999653
-0.013852 0.024133 0.018160 -0.076956 0.996936 -0.013993
0.045988 -0.005088 -0.011067 0.997664 0.068297 0.001640
0.021327 -0.024703 0.019339 0.040295 -0.998317 -0.041707
0.038890 0.022047 0.024368 0.681108 0.732164 -0.005207
0.008344 -0.017953 -0.047259 -0.007760 0.087108 -0.996169
0.004547 0.025475 0.024843 -0.045424 0.997446 -0.055112
0.048179 -0.005028 0.033225 0.505795 0.023346 0.862338
-0.004869 -0.025892 0.012240 0.051375 -0.998658 0.006529
-0.034127 -0.013523 0.029426 0.055470 0.035262 0.997838
-0.013131 0.024138 0.016103 -0.061950 0.998053 -0.007296
-0.021262 0.003238 -0.046704 0.031663 -0.019584 -0.999307
-0.039262 -0.029997 0.032024 -0.244238 -0.966437 0.079670
-0.024849 0.023482 -0.036393 -0.022974 0.999731 0.003158
0.012611 0.025470 0.008986 -0.040960 0.999146 -0.005488
0.040479 0.022626 0.030825 -0.504850 -0.628909 0.591270
0.008358 0.005997 0.028353 -0.016667 -0.038092 0.999135
0.011791 -0.019681 -0.047461 -0.016099 0.251606 -0.967696
-0.026224 -0.027109 -0.015753 0.088798 -0.996041 -0.004240
0.045919 -0.005855 -0.040957 0.999731 0.022179 -0.006711
-0.001949 -0.026345 0.025318 0.095207 -0.995345 -0.014973
0.045256 0.003793 0.003385 0.997575 0.069558 -0.002368
0.001184 -0.025127 -0.015326 0.069316 -0.997385 -0.020458
0.000780 0.024953 -0.045422 0.068282 0.990477 0.119552
-0.023921 -0.023421 -0.048534 -0.020483 0.660941 -0.750158
-0.011349 -0.027663 0.030595 -0.053432 0.922705 0.381785
-0.050709 0.007666 -0.002210 -0.989374 0.145241 0.006627
0.018323 0.022359 -0.048020 0.034487 -0.510207 -0.859360
0.036302 -0.024147 0.030244 -0.258745 0.736475 0.625024
0.029927 0.026416 -0.004865 0.158071 0.987423 0.002977
0.006382 -0.024757 -0.035464 0.067128 -0.996066 0.057849
0.043034 -0.016932 0.025898 0.795455 -0.554864 -0.243675
0.046905 0.005024 0.028395 0.882217 0.062163 -0.466721
-0.002147 0.016964 -0.047233 0.001850 -0.082458 -0.996593
-0.015945 0.025478 0.028706 -0.048035 0.926092 -0.374228
-0.031158 0.023342 -0.029238 -0.046817 0.998741 -0.017992
-0.014201 0.009027 0.028760 -0.019519 -0.034144 0.999226
0.038567 -0.012114 0.030054 -0.289832 0.233045 0.928271
0.031580 -0.023548 0.029802 0.011138 0.021071 0.999716
-0.001952 -0.025311 -0.046692 0.057247 -0.993355 0.099839
-0.024861 0.023579 -0.015368 -0.038395 0.999194 0.011678
-0.015426 0.013020 0.028984 0.022997 -0.051539 0.998406
-0.050586 0.007700 0.003389 -0.991601 0.128781 0.011958
-0.018591 0.023846 0.017996 -0.024103 0.999519 -0.019522
-0.041529 0.021422 0.026936 -0.443564 0.791493 -0.420464
-0.011340 0.004308 0.028616 0.044930 -0.047755 0.997848
-0.034625 0.016774 -0.047420 0.048680 -0.066255 -0.996615
-0.038963 -0.026261 -0.022335 -0.400654 -0.916218 0.004498
0.044559 0.012060 -0.023277 0.977101 0.212732 -0.004252
0.033416 0.001872 0.029122 -0.053389 0.011207 0.998511
0.028000 0.017809 -0.047587 -0.031954 -0.025396 -0.999167
0.045406 0.002499 -0.029105 0.997718 0.066061 -0.013925
-0.001870 0.024913 -0.046222 -0.053911 0.992290 0.111599
-0.050108 0.009602 0.012017 -0.978804 0.204780 -0.003000
0.038193 0.022881 -0.002073 0.618903 0.785468 -0.000149
-0.042115 0.006570 0.029766 -0.000993 -0.028122 0.999604
-0.041823 -0.024694 0.008844 -0.540068 -0.841593 -0.006849
0.008161 -0.021530 -0.048604 -0.078677 0.752656 -0.653696
0.035011 -0.022843 -0.003153 0.318151 -0.947924 -0.014824
0.009889 0.022269 0.029354 -0.003970 -0.045058 0.998976
-0.017607 0.026790 0.033330 -0.158218 0.492228 0.855966
0.003372 -0.025336 0.003100 0.061671 -0.997841 -0.022574
0.023258 0.026392 -0.009794 -0.075881 0.996609 0.031820
0.025538 0.003934 -0.047005 -0.035104 -0.021661 -0.999149
0.038218 0.023036 -0.018522 0.624997 0.780583 -0.008314
-0.039225 -0.027707 0.027938 -0.298080 -0.755684 -0.583172
0.008707 -0.024532 -0.049071 -0.036533 -0.770030 -0.636961
-0.027456 -0.020801 0.029628 0.072484 0.012758 0.997288
0.044108 0.015434 0.027169 0.758141 0.307961 -0.574788
-0.049757 -0.009690 -0.003321 -0.996109 -0.087728 0.008408
-0.020454 -0.026919 0.002066 0.079976 -0.996767 -0.007699
-0.030621 -0.019355 0.029599 0.018062 0.055918 0.998272
-0.035311 -0.027414 0.001185 -0.196445 -0.980496 -0.006061
0.012000 0.023494 0.029409 -0.009845 -0.050435 0.998679
0.019792 -0.024805 0.020437 0.041989 -0.997392 -0.058700
-0.022169 0.023676 -0.021529 -0.023582 0.999680 -0.009103
0.013684 -0.015435 0.028832 -0.037384 0.182268 0.982538
-0.009043 0.024363 0.017432 -0.047992 0.998735 -0.014991
0.003592 0.026731 0.033280 0.002089 -0.305914 0.952057
0.044148 0.013458 -0.037676 0.962328 0.271871 -0.003443
-0.020996 0.025593 0.029866 -0.064038 0.873980 -0.481725
-0.048407 0.014451 0.009094 -0.884685 0.465210 -0.030201
-0.051894 0.009652 0.029046 -0.825157 0.136074 -0.548269
-0.023304 -0.002839 0.028887 0.058088 -0.005941 0.998294
0.047236 -0.004586 0.028491 0.905587 0.006707 -0.424108
0.028409 0.014922 0.031175 -0.027374 -0.390614 0.920148
-0.001730 -0.025200 -0.024427 0.063365 -0.997990 0.000638
0.015807 -0.024428 -0.039550 0.050479 -0.996915 0.060109
0.018104 0.026031 -0.018391 -0.097370 0.995241 -0.003766
-0.001977 -0.025249 -0.035326 0.065234 -0.997853 0.005790
0.043553 -0.015861 -0.011190 0.862838 -0.505365 -0.010795
-0.012735 0.024046 -0.033806 -0.059763 0.998212 0.001259
0.039929 -0.019841 -0.032368 0.627907 -0.778277 -0.004124
0.046485 -0.002326 0.030716 -0.856501 -0.026882 0.515446
0.003387 0.011057 0.028667 -0.008592 -0.048779 0.998773
0.029088 -0.023859 0.000093 0.042046 -0.999016 -0.014103
0.015580 0.008137 0.028428 -0.352396 0.369205 0.859944
0.039688 -0.020261 -0.014144 0.600739 -0.799398 -0.008668
-0.035085 0.022977 0.012580 -0.124078 0.992254 0.006000
0.045907 -0.003530 -0.020734 0.998159 0.060627 -0.001957
-0.048313 -0.007158 -0.049596 -0.184485 0.050322 -0.981546
0.024425 0.026430 -0.003684 -0.092440 0.995716 -0.001895
-0.045757 -0.021610 0.027038 -0.695671 -0.557471 -0.453065
0.045733 -0.009682 -0.032442 0.984420 -0.174679 -0.020134
-0.015001 -0.026225 -0.037605 0.074802 -0.997004 0.019701
-0.005742 0.024596 0.019113 -0.070763 0.996637 -0.041323
0.025371 -0.024078 -0.042041 0.060414 -0.996889 0.050626
-0.020548 0.023985 0.029676 0.048998 -0.403113 0.913838
-0.011722 -0.025928 -0.023517 0.070276 -0.997516 -0.004762
-0.023106 -0.012930 0.029023 0.042326 0.054163 0.997635
0.026879 -0.024099 0.007965 0.047774 -0.998647 -0.020515
-0.000594 -0.025135 -0.023174 0.069368 -0.997587 -0.002862
-0.025957 0.015743 -0.047300 -0.010295 -0.060520 -0.998114
-0.043544 -0.017296 -0.048521 0.449965 0.229438 -0.863070
-0.022507 -0.029088 0.029939 0.084792 -0.897798 -0.432168
-0.006561 0.024302 -0.026832 -0.062130 0.997984 0.012937
0.011264 -0.024459 -0.016455 0.067960 -0.997483 -0.020212
-0.012226 0.024275 0.019924 -0.051731 0.998123 -0.032776
0.024746 0.003705 0.028734 -0.033488 -0.003575 0.999433
0.040667 0.020346 -0.032136 0.790297 0.612718 -0.002690
-0.046453 0.016617 0.030343 0.073456 -0.008683 0.997261
0.007103 0.025189 -0.044535 -0.112801 0.992911 -0.037454
-0.013478 -0.026111 -0.015224 0.069731 -0.997396 -0.018389
-0.037120 -0.017328 -0.047391 0.022309 -0.003735 -0.999744
0.010145 -0.002094 0.029118 0.821673 -0.509798 0.254871
-0.014191 0.002883 -0.046512 0.022444 -0.020318 -0.999542
-0.015701 -0.026221 -0.046289 0.089995 -0.994976 0.043863
0.008663 0.025563 -0.037613 -0.077736 0.995741 0.049575
-0.045160 -0.013694 -0.048599 0.520723 0.148091 -0.840783
0.017037 0.003343 0.028441 -0.028858 0.016110 0.999454
0.001833 -0.019320 -0.047359 -0.010007 0.121091 -0.992591
-0.050017 -0.004884 0.000889 -0.996502 -0.081514 0.018440
0.024381 0.026631 -0.028210 -0.074658 0.996735 0.030752
0.045756 -0.009576 0.005508 0.981742 -0.190217 -0.000402
-0.048270 -0.016751 -0.024242 -0.923188 -0.384342 0.002340
0.038530 -0.020964 -0.023306 0.529107 -0.848422 -0.015042
-0.050398 -0.011791 0.030566 0.773246 0.023490 0.633670
0.017335 -0.024562 0.004826 0.054077 -0.998448 -0.013296
-0.020956 0.008774 0.029000 0.014334 -0.001717 0.999896
-0.048712 0.016053 0.030445 0.540796 -0.352594 0.763686
-0.003248 0.024545 -0.019261 -0.071456 0.997385 -0.010851
0.003427 0.025086 0.018354 -0.018463 0.999286 -0.032973
0.016069 -0.024835 0.017192 0.041695 -0.999053 -0.012453
0.013432 0.027787 0.030462 -0.054234 0.897037 -0.438615
-0.024609 -0.027033 -0.035443 0.067860 -0.997694 -0.001204
0.004685 0.027557 0.030665 -0.031765 0.882654 -0.468949
0.036109 0.024230 -0.001394 0.495007 0.868776 0.014011
-0.030476 0.023299 -0.000324 -0.048578 0.998605 -0.020706
0.045705 -0.001510 -0.046246 0.993678 0.067169 -0.089957
0.002896 0.025028 -0.020098 -0.069296 0.997584 0.004955
0.000701 -0.027770 0.029826 0.006804 -0.840749 -0.541383
0.044137 0.013440 -0.041553 0.964578 0.263107 -0.019053
0.036535 -0.024606 0.032499 -0.242843 0.696327 0.675393
-0.017061 -0.026748 0.009735 0.068356 -0.997646 -0.005405
-0.049902 -0.006712 -0.032761 -0.997286 -0.073627 0.000541
-0.018711 -0.011105 -0.046797 0.015790 0.054104 -0.998410
-0.010720 0.024195 -0.005502 -0.039465 0.999216 -0.003003
-0.045898 -0.016155 -0.049471 0.146999 0.018348 -0.988966
0.028066 0.027334 0.031595 -0.009679 -0.889602 0.456633
0.043239 0.016210 0.006869 0.917850 0.396924 -0.001878
-0.026027 -0.028239 0.030489 -0.038367 0.822079 0.568079
0.038475 0.022594 0.022583 0.622534 0.782264 0.022682
-0.002244 0.024623 -0.006132 -0.047861 0.998853 -0.001192
0.045237 0.004809 -0.027825 0.996956 0.077452 -0.008912
-0.021321 0.024996 0.028292 -0.043054 0.927165 -0.372172
0.045952 -0.006292 -0.031183 0.999952 0.007197 -0.006654
-0.042498 0.024602 0.032934 -0.308355 0.773848 0.553242
0.012046 -0.000355 0.028317 0.069744 0.010305 0.997512
0.005409 -0.024902 -0.048191 0.019532 -0.948265 -0.316877
-0.045539 -0.021341 -0.027853 -0.765558 -0.643344 -0.005395
-0.046280 -0.020448 -0.004397 -0.812017 -0.583456 -0.014425
0.024775 0.026919 -0.038897 -0.089577 0.995425 0.033237
-0.025534 0.004616 0.029090 0.023801 0.006784 0.999694
-0.046667 -0.019793 -0.014427 -0.839295 -0.543658 -0.004444
-0.047477 -0.018718 0.018410 -0.887399 -0.460998 0.001882
0.023475 -0.024450 0.015578 0.055028 -0.997732 -0.038777
-0.001469 -0.025743 0.008920 0.061215 -0.997997 -0.015972
0.042124 0.018340 -0.035488 0.867167 0.498000 0.004195
0.017968 0.025477 -0.049274 -0.039123 0.599340 -0.799538
0.008493 -0.028501 0.032688 0.084619 -0.737381 0.670156
0.044189 0.009901 -0.049181 0.678402 0.087805 -0.729425
0.039747 -0.013124 0.030992 -0.495160 0.070755 0.865916
-0.040891 0.019387 -0.047804 -0.188739 0.285893 -0.939491
-0.043502 -0.023581 -0.030598 -0.654422 -0.755984 0.014815
-0.028532 -0.028043 0.026995 0.083408 -0.937013 -0.339189
-0.044941 0.011209 -0.047989 0.052759 -0.027349 -0.998233
-0.037423 0.022795 0.024649 -0.238999 0.970458 -0.033015
-0.038042 0.022661 -0.039641 -0.262894 0.964563 0.022482
-0.024213 0.023629 -0.019413 -0.024111 0.999698 0.004646
0.020553 0.022026 -0.047765 0.003756 -0.398266 -0.917262
-0.024902 -0.027283 0.002595 0.077449 -0.996959 0.008624
-0.023598 -0.024172 0.029466 0.019894 0.048659 0.998617
-0.034473 -0.027515 -0.034225 -0.111242 -0.993747 -0.009641
-0.050586 0.007700 0.003389 -0.991601 0.128781 0.011958
0.045019 0.007941 -0.006717 0.998565 0.053396 0.004217
-0.042156 -0.001554 -0.047744 0.072454 0.004864 -0.997360
0.034106 0.025355 -0.048285 0.392920 0.851403 -0.347458
-0.001469 -0.025743 0.008920 0.061215 -0.997997 -0.015972
0.013974 0.004634 0.031380 -0.239373 0.186554 0.952837
0.010301 -0.021300 -0.048457 0.011788 0.642428 -0.766255
0.048101 0.000949 0.033177 0.664261 0.057836 0.745260
-0.041775 -0.024774 -0.012454 -0.537105 -0.843512 0.002593
-0.026119 -0.029448 0.030219 0.017780 -0.856452 -0.515921
-0.003559 0.023430 0.029449 -0.004523 -0.035728 0.999351
-0.000960 0.024675 -0.007489 -0.050693 0.998714 0.000668
-0.013527 -0.026522 0.014552 0.047409 -0.998865 -0.004649
-0.031373 -0.002673 -0.047068 0.048554 0.000139 -0.998821
0.010452 -0.024608 -0.039073 0.042715 -0.996071 0.077578
-0.043309 -0.020023 0.030022 0.046221 0.052077 0.997573
-0.034106 -0.009737 0.029337 -0.007916 0.077347 0.996973
-0.049695 -0.007770 -0.026055 -0.998771 -0.048313 0.011079
0.009277 -0.026696 0.031977 -0.061339 0.794088 0.604700
0.045554 -0.019917 0.031414 0.816085 -0.563305 -0.129200
0.044961 0.008051 0.029848 -0.312044 -0.046830 0.948913
-0.050343 0.007847 0.023707 -0.995972 0.089529 0.004927
-0.026340 0.023245 -0.045917 -0.038034 0.999204 -0.012041
0.030328 -0.020334 0.031308 -0.155153 -0.462458 0.872961
0.004052 -0.024985 -0.012370 0.060996 -0.998059 -0.012580
-0.006897 -0.026538 0.023450 0.058418 -0.996688 -0.056564
-0.050470 0.008360 0.015670 -0.991714 0.128097 0.009741
0.046271 0.006745 0.031151 -0.966244 0.006947 0.257534
0.045735 -0.009654 -0.029422 0.982396 -0.186753 0.004665
-0.002760 -0.025915 0.018348 0.059649 -0.997901 -0.025227
0.007336 0.025745 -0.041020 -0.070727 0.997425 0.011881
0.044240 0.004249 0.029844 -0.123092 -0.038148 0.991662
-0.037343 -0.026872 -0.031308 -0.305523 -0.952169 0.005497
0.007811 -0.022269 -0.049335 -0.047838 0.401654 -0.914541
0.019509 0.010107 0.028874 0.860574 -0.298356 0.412791
0.008104 -0.025247 0.013502 0.068135 -0.997674 0.002175
-0.016816 -0.026735 0.012919 0.080384 -0.996745 -0.006135
-0.017537 -0.026479 -0.036346 0.073946 -0.997170 -0.013592
-0.039986 -0.025081 -0.049078 -0.280079 -0.456440 -0.844522
-0.049962 -0.006905 -0.007242 -0.996966 -0.076116 0.016279
-0.049563 -0.011675 -0.012529 -0.989965 -0.141309 0.001340
0.045366 -0.011256 -0.023759 0.959798 -0.280680 -0.002630
0.028409 0.014922 0.031175 -0.027374 -0.390614 0.920148
-0.044977 -0.011290 0.029747 0.035683 0.025999 0.999025
0.027818 -0.011681 0.030816 0.485328 -0.047597 0.873036
-0.019061 -0.026581 -0.037349 0.077122 -0.997018 0.002689
-0.015059 -0.003208 -0.046497 0.019200 0.011738 -0.999747
0.020821 0.026575 -0.038703 -0.068227 0.997645 -0.007000
0.045718 -0.010543 0.017362 0.982063 -0.187419 -0.020646
0.006938 0.025130 0.008642 -0.041249 0.999083 -0.011490
0.006855 -0.017194 -0.047170 -0.011474 0.081818 -0.996581
0.042074 -0.012809 0.031732 0.340780 0.029735 0.939673
0.000114 0.024881 -0.037601 -0.070021 0.996942 0.034682
0.044700 0.010912 0.013059 0.993585 0.112113 0.014833
-0.003314 -0.025092 -0.044575 0.042103 -0.976844 -0.209771
0.018591 -0.024236 -0.007518 0.053687 -0.997931 -0.035362
0.034127 -0.015683 0.029868 -0.143993 -0.037298 0.988876
0.037411 -0.018137 0.031533 -0.136898 0.204284 0.969292
0.012784 -0.025558 0.026600 0.059225 -0.938280 -0.340768
-0.000807 0.024704 -0.009402 -0.048411 0.998827 0.000319
0.031657 0.026061 0.004106 0.222875 0.974507 0.025730
-0.032498 0.023303 -0.026432 -0.072177 0.997382 0.004434
-0.048557 0.014044 -0.008877 -0.884540 0.466461 -0.001923
0.033611 -0.019312 -0.048332 -0.024901 0.014576 -0.999584
-0.032803 -0.028435 0.030420 -0.018579 0.789480 0.613495
-0.000469 -0.025458 -0.002615 0.067690 -0.997199 -0.031805
-0.045775 -0.002849 -0.048372 0.430107 0.022485 -0.902498
-0.052790 0.004153 0.033658 -0.465166 -0.002693 0.885219
-0.015837 -0.026259 -0.027661 0.077424 -0.996960 0.008769
0.002880 -0.025410 -0.041630 0.079270 -0.993070 0.086765
0.041508 0.019147 0.017086 0.812808 0.582466 -0.008715
0.026524 0.027068 -0.037879 -0.042825 0.998409 0.036671
0.038861 0.022445 -0.026540 0.680007 0.733206 -0.000071
-0.053333 0.005461 0.032360 -0.998326 -0.042667 0.039055
0.020339 -0.009557 0.028806 -0.031567 0.030880 0.999025
0.009830 0.025813 0.026960 -0.044482 0.963165 -0.265206
0.044184 -0.005686 -0.048159 0.268636 -0.108974 -0.957058
-0.047244 0.001034 0.029885 0.001191 -0.017950 0.999838
-0.050134 -0.002994 -0.026418 -0.996529 -0.083117 -0.004684
0.004294 -0.024781 -0.028324 0.061557 -0.997955 0.017229
0.010638 0.014855 0.028923 0.025135 -0.079447 0.996522
-0.050499 0.003200 0.002500 -0.999339 -0.033455 0.014239
0.010307 -0.025028 0.010013 0.054179 -0.998370 -0.017930
-0.007308 0.024333 -0.015251 -0.053910 0.998534 -0.004830
-0.003480 -0.025566 -0.005670 0.074631 -0.996745 -0.030473
-0.007359 -0.026653 0.029483 -0.021502 0.554611 0.831832
0.031649 0.006133 -0.047321 -0.048552 -0.039192 -0.998051
0.039089 0.004620 -0.047750 -0.236122 -0.041270 -0.970847
-0.002054 0.024635 0.000105 -0.050398 0.998669 -0.010958
-0.035588 0.022940 -0.010364 -0.105489 0.994420 -0.001056
-0.047270 -0.018997 0.016007 -0.884426 -0.466568 -0.010228
0.028421 0.012986 0.029087 -0.027495 -0.193752 0.980665
0.023856 0.024913 0.029633 -0.041432 -0.054345 0.997662
-0.041626 0.021089 0.017114 -0.491911 0.870559 0.012279
-0.012356 0.013345 0.028985 0.005779 -0.048806 0.998792
0.040913 0.020148 -0.040873 0.805859 0.592104 0.002129
0.017255 -0.006741 0.028711 -0.015285 0.012528 0.999805
0.022522 0.026151 -0.000265 -0.061514 0.997771 0.025870
-0.016979 -0.008229 0.028708 0.022256 0.026136 0.999411
0.026134 -0.023770 -0.013948 0.043973 -0.998974 -0.010809
0.010544 0.025720 -0.048759 -0.052824 0.825385 -0.562094
0.026813 0.026821 -0.028021 -0.046146 0.998396 0.032806
0.012838 -0.024902 0.009682 0.051762 -0.998427 -0.021550
-0.045850 -0.020915 -0.002707 -0.766551 -0.642169 0.004322
0.003681 -0.018911 -0.047325 0.008312 0.112652 -0.993600
0.004052 -0.024985 -0.012370 0.060996 -0.998059 -0.012580
-0.050554 0.007533 0.007667 -0.995396 0.095306 -0.010170
-0.049264 0.012553 0.023086 -0.920511 0.390702 0.003446
0.008565 0.025225 0.007197 -0.067945 0.997596 -0.013651
0.033121 0.025960 -0.034090 0.357189 0.934029 0.002189
-0.039986 -0.025081 -0.049078 -0.280079 -0.456440 -0.844522
-0.042258 0.010599 0.029940 0.041363 -0.042010 0.998261
-0.011349 -0.027663 0.030595 -0.053432 0.922705 0.381785
0.008419 0.025703 -0.039564 -0.074302 0.993780 0.082950
0.021327 -0.024703 0.019339 0.040295 -0.998317 -0.041707
-0.033683 -0.024444 0.029824 0.056496 0.037989 0.997680
0.029480 0.026564 -0.021394 0.127550 0.991805 0.007303
-0.004252 -0.025563 -0.007662 0.071030 -0.997235 -0.021820
0.021201 -0.012116 -0.047025 -0.024297 0.050293 -0.998439
0.041260 -0.018011 -0.044464 0.739630 -0.665410 -0.100882
-0.041751 -0.012041 0.029591 0.025769 0.067730 0.997371
0.013059 -0.026608 0.032329 -0.048550 0.848337 0.527226
0.035335 -0.010185 0.029686 -0.024732 0.278252 0.960190
-0.045150 0.018611 -0.044515 -0.682320 0.720093 -0.126113
0.044416 -0.014632 0.017450 0.915283 -0.397732 -0.063768
-0.021032 0.015638 -0.047334 0.005889 -0.071348 -0.997434
0.006508 0.027499 0.030533 -0.008361 0.911512 -0.411188
-0.001301 0.027731 0.031124 -0.093945 0.905868 -0.413011
-0.034556 0.023109 -0.002542 -0.089449 0.995932 -0.010844
-0.049602 -0.009437 -0.031979 -0.996786 -0.080051 -0.003250
0.045962 -0.004862 -0.027026 0.999019 0.042864 -0.011112
0.037894 -0.021836 0.022255 0.483108 -0.875556 -0.002849
-0.016770 -0.016423 0.028946 -0.015138 0.008395 0.999850
0.023631 -0.024940 0.024396 0.075982 -0.997065 -0.009418
0.041141 -0.003751 0.031408 0.490123 0.065001 0.869226
-0.044080 -0.022908 -0.019500 -0.707643 -0.706528 -0.007723
0.044755 0.009138 -0.047656 0.981894 0.122455 -0.144530
-0.012943 0.024575 0.026227 -0.058483 0.981780 -0.180797
-0.041770 -0.025376 0.027077 -0.450163 -0.690247 -0.566491
0.012000 0.023494 0.029409 -0.009845 -0.050435 0.998679
-0.024101 0.003470 0.028989 0.062501 -0.076065 0.995142
-0.027593 -0.027588 0.021458 0.056557 -0.998277 -0.015599
-0.009947 0.024241 0.000598 -0.046226 0.998921 -0.004480
0.021695 -0.023994 -0.013370 0.048632 -0.998703 -0.015101
-0.050291 -0.001373 -0.029020 -0.996512 -0.082767 -0.010685
0.001857 -0.024984 -0.030222 0.070902 -0.997324 0.017843
0.034926 0.012734 0.031216 -0.103760 -0.204524 0.973347
-0.050561 0.002731 -0.018644 -0.998854 -0.047823 0.001810
-0.010523 0.000590 0.028490 0.013645 -0.023766 0.999624
-0.038544 -0.003898 -0.047515 0.066353 0.004977 -0.997784
-0.015834 0.024216 0.023117 -0.026827 0.994631 -0.099946
0.013341 0.026080 -0.039646 -0.086515 0.993989 0.067086
0.045889 -0.006589 -0.044458 0.998710 -0.021164 -0.046148
-0.024386 -0.026984 -0.029986 0.083700 -0.996134 0.026688
-0.026564 -0.027210 -0.033820 0.084668 -0.996390 0.006170
-0.050413 -0.000003 -0.012736 -0.997533 -0.069862 -0.006868
0.040145 -0.019851 -0.016477 0.644475 -0.764620 -0.002849
-0.026995 0.023388 0.007156 -0.023192 0.999645 -0.013148
0.000114 0.024881 -0.037601 -0.070021 0.996942 0.034682
0.029378 -0.023697 -0.016829 0.032060 -0.999468 -0.006052
0.029458 -0.019913 -0.048164 -0.052492 0.141663 -0.988522
0.044621 0.010562 0.015130 0.993136 0.114636 0.023224
0.009277 -0.026696 0.031977 -0.061339 0.794088 0.604700
0.045034 0.008960 -0.017379 0.994102 0.107911 0.010759
0.046769 -0.007583 0.030998 -0.926770 0.034525 0.374039
0.017463 0.025804 0.013636 -0.073964 0.997259 0.002014
-0.031393 -0.014405 -0.047170 0.028531 0.029457 -0.999159
0.003387 0.011057 0.028667 -0.008592 -0.048779 0.998773
-0.004002 -0.025732 -0.001115 0.064930 -0.997712 -0.018852
0.044980 0.008112 -0.028081 0.996378 0.082909 -0.018885
-0.044746 0.019047 -0.012526 -0.679810 0.733362 0.006124
-0.022376 -0.022921 0.029365 0.012170 0.046496 0.998844
0.032301 0.025831 0.012595 0.251765 0.967577 0.020212
0.005973 0.025275 -0.030157 -0.075120 0.997162 0.005044
0.020857 -0.024250 -0.002791 0.051879 -0.998446 -0.020351
0.027863 0.029418 0.032538 -0.010413 0.951953 0.306067
-0.032084 0.023940 0.030145 0.042883 -0.517502 0.854607
0.041957 0.019781 0.027509 0.672603 0.483620 -0.560104
-0.037385 -0.002639 0.029351 0.041180 0.001893 0.999150
0.017050 0.025942 -0.020671 -0.088801 0.996044 0.003232
0.036708 -0.023143 0.029824 -0.103573 0.229237 0.967844
-0.000413 0.004676 0.028389 -0.006814 -0.028914 0.999559
0.020058 0.011076 0.029110 -0.944814 0.192612 -0.265005
-0.048002 -0.017359 -0.041152 -0.909055 -0.416575 -0.009143
0.037487 0.016759 0.029625 -0.074683 -0.090408 0.993101
0.035476 0.024914 -0.039487 0.492070 0.870499 0.009904
0.044654 0.010904 0.002021 0.988311 0.152454 -0.000006
0.034817 -0.022247 -0.047156 0.337015 -0.774977 -0.534632
0.017114 -0.015570 -0.047177 -0.012923 0.076085 -0.997018
-0.009178 -0.010153 -0.046634 0.006321 0.058776 -0.998251
-0.003244 -0.027094 0.030057 -0.068440 0.816360 0.573474
-0.046453 0.016617 0.030343 0.073456 -0.008683 0.997261
0.044002 -0.012215 -0.047618 0.593316 -0.235750 -0.769674
-0.017333 -0.026393 -0.016047 0.084995 -0.996349 -0.008062
-0.040247 0.021874 0.016433 -0.411045 0.911595 0.006080
0.019196 0.011785 0.028592 -0.167650 0.082059 0.982425
0.024736 0.026338 0.004918 -0.076791 0.997044 -0.002558
-0.045475 -0.021569 0.009058 -0.775908 -0.630402 -0.023665
-0.001092 -0.027837 0.029882 0.060533 -0.851994 -0.520040
-0.050240 0.009157 -0.003575 -0.974716 0.223245 -0.009538
0.033078 0.018046 -0.047743 -0.041162 -0.044890 -0.998144
-0.031351 -0.027539 -0.036736 0.036856 -0.999300 0.006342
-0.020630 0.023734 -0.037088 -0.046932 0.998820 0.012500
0.018554 -0.019510 0.030969 -0.077241 -0.479431 0.874174
-0.037647 -0.000488 -0.047439 0.063405 0.002952 -0.997983
0.019519 0.026455 -0.047871 -0.229601 0.938865 -0.256545
-0.049691 -0.010688 -0.005690 -0.995429 -0.095460 0.002804
-0.050170 0.009601 -0.010318 -0.963535 0.267576 0.001652
0.018725 -0.024071 -0.020510 0.047364 -0.998854 -0.006889
-0.049488 -0.008655 0.019743 -0.998978 -0.043288 0.012976
0.043835 0.015127 0.018069 0.934696 0.355416 -0.004820
-0.048928 0.013489 0.014680 -0.903965 0.427606 -0.001028
0.021350 0.026335 -0.014381 -0.081125 0.996671 0.008164
-0.032474 -0.027669 -0.003583 -0.003326 -0.999975 -0.006160
-0.018222 -0.006136 -0.046611 0.024886 0.024336 -0.999394
0.013830 -0.007394 0.028575 -0.051633 0.007818 0.998636
-0.026880 0.023524 0.017479 -0.047949 0.998714 -0.016456
0.042740 -0.006506 0.029704 0.410436 0.108355 0.905429
-0.026041 -0.023813 0.029496 0.031750 0.049734 0.998258
-0.035667 0.017980 -0.047560 0.053063 -0.082136 -0.995208
-0.039512 -0.026018 -0.029282 -0.426442 -0.904500 0.005198
-0.037809 0.022641 -0.034160 -0.233720 0.971957 0.025993
-0.014576 -0.029430 0.030452 0.065417 -0.897714 -0.435694
0.041735 -0.005233 -0.047749 -0.168229 -0.068556 -0.983361
0.028000 0.017809 -0.047587 -0.031954 -0.025396 -0.999167
-0.050676 0.006648 0.026648 -0.959099 0.051426 -0.278361
0.021465 0.005420 0.028725 -0.051313 0.013454 0.998592
0.023025 0.018497 0.029300 -0.027568 -0.056679 0.998012
0.030106 0.001598 0.028945 -0.047400 0.012096 0.998803
-0.049625 -0.017047 0.028226 -0.755549 -0.263928 -0.599572
0.035570 0.024507 0.008858 0.465867 0.884699 0.016575
0.013830 -0.007394 0.028575 -0.051633 0.007818 0.998636
-0.019633 0.023744 -0.015496 -0.043582 0.999050 0.000403
0.010061 -0.024499 -0.032652 0.041667 -0.999130 0.001557
-0.020320 -0.014665 0.028949 0.041761 0.075122 0.996299
-0.020625 -0.027160 0.013171 0.062510 -0.997934 -0.014808
0.018474 0.026076 -0.022866 -0.084446 0.996138 -0.024030
0.021767 -0.011334 0.028915 -0.017565 0.021560 0.999613
-0.010958 -0.028104 0.029003 0.110086 -0.868577 -0.483172
0.023491 0.026541 -0.018706 -0.070155 0.997449 0.013164
0.039259 -0.020782 -0.003619 0.553379 -0.832801 -0.014636
-0.030467 0.002298 -0.047020 0.046990 -0.003293 -0.998890
0.040370 0.011649 -0.048657 -0.515426 -0.110691 -0.849755
0.037456 0.023551 -0.046547 0.606973 0.793425 -0.045390
-0.043623 -0.023494 0.003079 -0.639399 -0.768766 -0.012950
-0.023774 0.023522 0.002926 -0.037891 0.999240 -0.009200
-0.008221 0.011122 0.028986 0.056449 -0.085953 0.994699
-0.006916 0.019521 0.029255 0.002151 -0.047052 0.998890
0.017928 -0.006570 -0.046760 -0.027471 0.028107 -0.999227
-0.019976 -0.002862 -0.046604 0.028180 0.006501 -0.999582
0.045966 -0.006049 0.008755 0.999385 0.034712 0.004995
-0.049207 0.012664 -0.026630 -0.921413 0.388464 0.009676
-0.001978 -0.020575 -0.047494 -0.007789 0.287760 -0.957671
0.010381 -0.025148 0.019830 0.068583 -0.996946 -0.037338
-0.046667 -0.019793 -0.014427 -0.839295 -0.543658 -0.004444
-0.030036 0.021647 -0.049045 -0.182606 -0.045323 -0.982141
-0.023278 -0.027311 0.021440 0.054127 -0.997823 -0.037683
-0.014765 0.020112 -0.047674 0.047835 -0.465514 -0.883747
-0.026880 0.023524 0.017479 -0.047949 0.998714 -0.016456
-0.025638 -0.022639 -0.047654 -0.050091 0.430531 -0.901185
-0.033893 -0.003190 -0.047195 0.060099 -0.000912 -0.998192
0.001858 -0.013067 0.028630 0.004299 0.056852 0.998373
0.007711 -0.006490 -0.046519 -0.015270 0.032780 -0.999346
0.024714 -0.024283 0.014185 0.047637 -0.998447 -0.028882
0.035109 -0.027077 0.031426 0.256334 -0.965543 -0.044945
0.039545 0.021687 -0.016649 0.743086 0.669188 -0.003318
-0.024902 -0.027283 0.002595 0.077449 -0.996959 0.008624
0.045770 -0.009825 0.024844 0.994402 -0.094983 -0.046288
-0.013660 0.024046 -0.015275 -0.044888 0.998981 -0.004612
-0.046379 0.017359 -0.024193 -0.768135 0.639919 -0.021705
-0.049684 -0.010639 -0.008702 -0.995857 -0.090376 0.010099
0.031856 -0.023640 -0.003814 0.158655 -0.987297 -0.008603
0.014395 0.003025 0.028470 0.126248 -0.106945 0.986217
0.015345 0.025988 -0.030179 -0.077604 0.996677 0.024767
-0.010311 -0.026388 0.011934 0.064022 -0.997661 -0.023965
-0.021791 0.023891 0.021257 -0.036468 0.998427 -0.042577
0.025904 -0.020118 -0.048092 0.054059 0.356326 -0.932796
0.039267 0.022085 -0.041848 0.701250 0.712450 -0.025752
-0.045519 -0.002170 0.029656 0.025992 -0.038529 0.998919
0.038193 0.022881 -0.002073 0.618903 0.785468 -0.000149
-0.047683 -0.018423 0.022304 -0.890660 -0.454562 0.009927
0.029120 0.026611 -0.048996 0.063934 0.755288 -0.652268
0.014043 -0.020405 -0.047730 -0.018091 0.512011 -0.858788
0.027224 0.027120 -0.039563 0.011124 0.999569 0.027163
0.044894 0.010761 -0.019943 0.987505 0.157534 0.004171
0.026592 -0.002455 0.028891 -0.009199 0.050418 0.998686
0.045393 0.001432 0.014007 0.997495 0.070582 0.004691
-0.018446 0.023741 -0.036043 -0.024787 0.999677 0.005619
-0.015167 0.003128 0.028720 0.002381 -0.016800 0.999856
0.016660 0.026060 0.024692 -0.038355 0.997222 -0.063850
0.019573 0.027681 0.029988 -0.047733 0.834323 -0.549206
0.033078 0.018046 -0.047743 -0.041162 -0.044890 -0.998144
0.045838 -0.004094 -0.000852 0.997001 0.077232 0.005001
0.010337 -0.004735 -0.046520 -0.019770 0.021650 -0.999570
-0.040443 -0.025657 0.009844 -0.493004 -0.869881 -0.015901
0.002372 0.024885 -0.047117 0.000849 0.999591 0.028598
0.042044 0.018562 0.014730 0.833767 0.552072 -0.006996
-0.019597 -0.023750 -0.049267 -0.006969 0.533600 -0.845708
0.027951 -0.023802 -0.007480 0.033007 -0.999357 -0.014035
-0.025894 -0.011261 -0.046934 0.017824 0.034829 -0.999234
0.008544 0.025208 0.000303 -0.054999 0.998453 0.008188
-0.035434 -0.027315 -0.028799 -0.179691 -0.983723 -0.000237
-0.018636 0.023683 -0.025413 -0.036658 0.999326 0.001730
-0.019949 -0.028091 0.031656 -0.041675 0.957462 0.285534
0.019434 -0.016968 -0.047322 -0.010459 0.073808 -0.997218
0.025604 -0.011390 0.031007 -0.380346 0.391601 0.837846
0.033307 0.025565 0.009205 0.338491 0.940960 0.004234
-0.031464 -0.028536 0.027423 0.019071 -0.912117 -0.409486
-0.036745 -0.027152 0.008554 -0.262473 -0.964890 -0.009750
0.035537 0.002735 -0.047398 -0.056427 -0.040912 -0.997568
-0.029611 -0.027435 -0.014434 0.074727 -0.997126 -0.012501
-0.001338 -0.024952 -0.044798 0.052009 -0.987774 -0.146963
0.021322 0.010359 0.030523 0.694992 -0.705135 0.140609
-0.018589 0.027065 0.031788 -0.079599 0.994005 -0.074960
-0.044253 0.019528 -0.003415 -0.644856 0.764292 0.004232
-0.032152 -0.000902 -0.047102 0.049901 0.000916 -0.998754
0.004538 0.018156 -0.047355 -0.005900 -0.085134 -0.996352
-0.035829 -0.004034 -0.047338 0.069090 -0.001914 -0.997609
-0.028934 0.023441 -0.047670 0.036810 0.926779 -0.373800
0.004832 -0.011438 0.029229 -0.681532 -0.098295 0.725156
-0.019396 -0.026495 -0.021889 0.072560 -0.997352 -0.004894
0.012984 -0.008830 0.028588 -0.066899 0.049141 0.996549
0.045234 0.003667 0.013760 0.997423 0.071728 0.001686
0.016377 -0.003047 0.028594 -0.030365 0.016338 0.999405
-0.016341 0.026982 0.031190 -0.045805 0.907862 -0.416760
-0.013242 0.024071 -0.046124 0.070613 0.990596 0.117186
-0.034089 -0.027530 -0.038882 -0.111716 -0.993730 0.004436
0.043292 -0.016262 -0.008742 0.848288 -0.529501 -0.005997
0.028752 0.026428 0.023707 0.088857 0.995733 -0.024894
-0.022182 -0.019387 0.029361 0.004962 -0.003600 0.999981
-0.038512 -0.026466 -0.038374 -0.361751 -0.932275 0.000122
0.012253 0.001478 0.028837 0.135409 -0.362363 -0.922148
-0.046095 -0.023343 0.032600 0.694275 0.518101 0.499554
0.018358 0.025864 0.005523 -0.080373 0.996760 0.003198
0.030732 0.021937 -0.047996 -0.171954 -0.370044 -0.912962
-0.024902 -0.027283 0.002595 0.077449 -0.996959 0.008624
0.036626 0.014844 0.029289 0.151075 0.185778 0.970908
0.002231 -0.027061 0.031701 -0.066748 0.871803 0.485288
-0.013504 0.024099 0.005964 -0.047340 0.998862 0.005822
0.000378 -0.021970 -0.048527 -0.063614 0.661833 -0.746948
0.041125 -0.001652 0.030650 0.615643 0.220646 0.756504
-0.020262 -0.020739 -0.047540 -0.020392 0.118073 -0.992795
-0.029825 -0.000886 -0.047005 0.048729 0.000792 -0.998812
0.008280 0.025488 -0.048988 -0.081880 0.809527 -0.581345
0.046449 0.014916 0.030104 0.836646 0.183502 -0.516092
-0.018867 0.021798 0.029589 0.030464 -0.044565 0.998542
-0.037121 0.011920 -0.047460 0.069515 -0.021611 -0.997347
-0.023503 0.023540 -0.004033 -0.052881 0.998584 -0.005760
0.026989 -0.023773 -0.034742 0.041383 -0.999067 0.012335
0.006273 0.025454 -0.038845 -0.090275 0.993287 0.072335
-0.049984 -0.005809 -0.004096 -0.998559 -0.053624 -0.002039
0.029588 -0.008179 0.030886 0.281563 -0.298275 0.912006
0.044937 -0.012737 -0.020269 0.939938 -0.341183 -0.010573
0.001077 0.024960 0.017120 -0.060964 0.997960 -0.018951
-0.038571 -0.003587 0.029398 0.049690 0.011819 0.998695
-0.041910 -0.024682 -0.040353 -0.554590 -0.832096 0.006841
-0.008927 -0.028210 0.029845 0.018406 -0.833110 -0.552801
-0.012713 -0.011454 -0.046742 0.010070 0.065096 -0.997828
-0.026339 0.024999 0.028671 -0.039087 0.893980 -0.446400
0.031453 -0.024207 0.025723 0.174605 -0.950808 -0.255883
0.020651 0.012614 0.031357 -0.468747 0.493776 0.732435
0.045553 -0.010570 -0.006142 0.976045 -0.217136 0.013699
0.044972 -0.012402 -0.040620 0.939299 -0.342941 -0.010477
-0.018222 -0.006136 -0.046611 0.024886 0.024336 -0.999394
