-0.068512 0.018637 0.049229 -0.871255 0.490032 -0.027974
0.041911 -0.009058 -0.101887 0.993693 0.099301 -0.052090
-0.017498 0.014868 0.085733 -0.972813 0.206155 0.105527
-0.065955 -0.031087 -0.105165 -0.947022 -0.317157 -0.050610
-0.036694 0.041187 0.085621 -0.166525 0.428323 0.888149
0.060692 0.060174 0.005780 0.693922 0.714824 -0.086601
-0.025357 -0.073411 0.084582 -0.109487 -0.553055 0.825919
0.044122 -0.031972 -0.012619 0.948144 -0.314000 -0.049264
-0.066775 -0.074485 0.068762 -0.132376 -0.918359 -0.372953
-0.069268 -0.032351 -0.036668 -0.941462 -0.333347 -0.050286
-0.025803 -0.067949 0.087444 -0.093247 -0.367950 0.925158
-0.052764 0.041275 0.085507 -0.573148 0.817461 0.057083
-0.048457 0.028597 -0.111217 -0.636773 0.768424 -0.063599
-0.066439 0.020965 0.032634 -0.843356 0.535034 -0.049892
-0.064347 -0.044329 -0.023629 -0.855151 -0.516337 -0.045974
0.037649 0.045308 -0.059424 0.227944 0.548143 -0.804724
-0.035538 -0.071060 0.026261 -0.351573 -0.935101 -0.044518
0.001440 -0.010526 0.071910 0.823167 -0.351173 0.446177
0.056755 0.060146 -0.016468 0.660102 0.735139 -0.154390
-0.048748 -0.066059 0.064858 -0.089097 -0.976297 -0.197247
-0.039557 0.043933 0.030050 -0.407380 0.911353 -0.058971
0.044516 0.046647 -0.051894 -0.608881 -0.401571 0.684108
-0.019801 -0.004463 -0.143179 -0.012675 -0.021619 -0.999686
0.000311 0.039414 -0.106179 0.275339 0.959851 -0.053613
0.032300 0.017787 -0.092740 0.807449 0.587501 -0.053564
-0.004594 -0.075126 0.045750 0.134883 -0.990675 -0.019235
-0.051342 0.026431 -0.107068 -0.670962 0.739260 -0.057479
-0.068020 -0.013062 -0.119467 -0.998454 0.001669 -0.055553
0.039160 -0.030726 -0.107616 0.947476 -0.313789 -0.061860
0.003267 0.042706 -0.033829 0.283750 0.956987 -0.060513
-0.042936 -0.064814 -0.029843 -0.500958 -0.864185 -0.047175
-0.068512 0.018637 0.049229 -0.871255 0.490032 -0.027974
0.008300 -0.065353 -0.087588 0.382605 -0.922710 -0.047103
-0.068721 0.019475 0.063732 -0.866788 0.491075 -0.086741
0.054784 0.066168 0.045575 -0.407294 0.912935 -0.025724
0.027864 0.037932 -0.066838 -0.271128 0.826424 -0.493470
-0.067282 -0.018841 -0.129468 -0.994698 -0.087555 -0.053944
0.068585 0.051647 0.019152 0.811858 -0.581171 0.055918
-0.057387 0.022736 -0.080227 -0.758665 0.648950 -0.057376
0.046221 0.059425 0.070475 -0.830714 0.339125 -0.441484
0.004043 0.003907 0.091874 0.767050 -0.282247 0.576169
-0.012392 -0.071034 -0.061649 0.024046 -0.998609 -0.046921
-0.034956 0.041280 -0.040017 -0.345374 0.936699 -0.057553
0.047640 -0.004493 0.010316 0.989542 0.136754 -0.045887
0.035826 0.028562 0.060193 0.669848 0.539390 -0.510257
0.051095 0.048325 0.075585 0.357916 0.349118 0.866033
0.054152 0.040543 -0.017878 -0.212768 -0.975116 0.062282
-0.066775 -0.074485 0.068762 -0.132376 -0.918359 -0.372953
0.053972 0.043656 0.003992 -0.643967 -0.752048 -0.140466
-0.028940 -0.071738 -0.004864 -0.254018 -0.966316 -0.041330
-0.028535 -0.069557 -0.053062 -0.256377 -0.965608 -0.043275
-0.015317 0.053385 0.087091 -0.065629 0.715451 0.695574
-0.022202 0.049580 0.048258 -0.120519 0.992009 -0.037333
0.046516 0.049039 -0.024685 0.570237 0.769315 -0.288069
0.060202 0.055375 0.055432 0.040806 -0.986052 -0.161361
0.048487 -0.004961 0.083688 0.593760 0.103556 0.797951
0.044454 0.054690 0.055755 -0.783382 0.612551 -0.105331
0.015370 0.037229 -0.039446 0.482684 0.873385 -0.064931
0.051342 0.056493 -0.033733 -0.729731 -0.575212 0.369628
-0.033476 -0.030203 0.080667 -0.882821 0.458959 0.099916
0.026292 0.005183 0.082526 -0.574165 -0.254878 0.778056
0.047306 -0.001465 0.013029 0.979536 0.192768 -0.057882
-0.044209 -0.042141 -0.146176 0.069222 0.128879 -0.989241
0.023387 -0.041366 0.085459 -0.499178 0.390239 0.773651
-0.046993 0.036387 -0.022057 -0.547320 0.834825 -0.059220
0.006222 -0.071541 0.017960 0.314923 -0.947946 -0.047135
0.047873 -0.014206 0.084930 0.518331 0.031655 0.854594
0.038707 -0.040507 -0.047398 0.878498 -0.474871 -0.052333
-0.031388 0.047456 0.040443 -0.272415 0.961453 -0.037407
0.034678 -0.002290 0.087263 -0.494523 -0.100453 0.863340
-0.075456 -0.013363 0.020051 -0.998764 -0.013441 -0.047844
0.029297 -0.050138 -0.089972 0.756605 -0.650460 -0.066708
-0.056471 0.018957 -0.129436 -0.798575 0.599533 -0.053267
-0.036768 0.046565 0.062787 -0.358756 0.929180 -0.088990
-0.043181 0.040327 0.084466 -0.291524 0.506703 0.811336
0.010248 0.046500 0.067508 0.366087 0.922448 -0.122761
-0.046262 0.008727 0.079222 0.510866 -0.329854 0.793859
-0.076695 -0.030469 0.086921 -0.390561 -0.143979 0.909248
-0.009187 -0.019984 0.095417 0.250940 -0.098638 0.962964
0.053878 0.043097 0.041869 -0.416841 -0.869115 0.266238
-0.024419 0.041369 -0.090171 -0.195647 0.978797 -0.060658
0.019048 -0.063039 -0.028493 0.523692 -0.850567 -0.047772
0.008218 -0.061949 -0.139269 0.376869 -0.831806 -0.407514
0.053698 0.065031 0.056999 0.141040 0.930244 0.338752
-0.013055 0.047990 0.009784 0.017625 0.998141 -0.058338
0.059219 0.046111 -0.041757 0.746347 0.461033 -0.480016
-0.017797 0.039445 -0.135824 -0.076250 0.982293 -0.171131
-0.006986 -0.036503 0.074074 0.863089 -0.106231 0.493754
-0.064421 -0.042678 -0.039082 -0.870837 -0.489191 -0.048315
0.032724 0.003542 0.086982 -0.487976 -0.175554 0.855021
0.058565 0.057204 0.039629 -0.775585 0.631041 -0.015963
-0.048705 0.006151 0.079712 0.535722 -0.287215 0.794046
0.035339 0.018339 -0.045089 0.884877 0.458334 -0.083200
-0.049854 0.033336 -0.036619 -0.610008 0.789870 -0.063210
0.047556 -0.016306 -0.001493 0.997976 -0.037592 -0.051289
0.007516 -0.011087 -0.143430 -0.035119 -0.026715 -0.999026
0.021794 -0.067618 0.088807 0.025595 -0.122881 0.992091
0.054724 0.061736 0.002160 -0.883253 -0.462693 0.076016
-0.026758 -0.006993 0.069934 -0.484762 0.147055 0.862195
0.059821 0.055304 0.044198 0.618917 -0.785192 -0.020375
-0.037017 0.042897 -0.002008 -0.374911 0.925256 -0.057820
-0.076378 -0.017282 0.049176 -0.996905 -0.075056 -0.023371
0.035480 0.031555 0.072378 0.999234 -0.031958 0.022607
0.007612 0.045571 0.083082 0.177807 0.442415 0.879007
-0.075074 -0.030889 0.086005 0.736175 0.231320 0.636032
0.059050 0.058826 0.051385 -0.955988 -0.154886 -0.249193
0.011318 -0.059201 0.088736 0.038775 -0.063231 0.997245
0.041466 -0.007680 -0.107650 0.991073 0.118847 -0.060421
-0.004527 0.035474 -0.142733 0.103366 0.630407 -0.769352
0.023222 -0.057318 -0.075046 0.627491 -0.777026 -0.049862
-0.065087 0.004834 0.087934 -0.186813 0.069871 0.979908
0.024941 0.035345 -0.069076 -0.685979 0.652877 -0.321224
-0.032323 0.023326 -0.146636 0.199960 -0.358425 -0.911892
0.015073 -0.008969 0.072487 -0.365663 -0.046273 0.929596
-0.012853 0.037254 -0.141637 0.024494 0.721170 -0.692325
-0.018360 0.019525 0.076015 -0.769865 -0.176845 0.613216
-0.074936 -0.019366 0.016922 -0.992885 -0.110232 -0.045044
0.039032 -0.043313 -0.013368 0.862394 -0.504121 -0.046242
-0.075936 0.004179 0.087914 0.616104 -0.178705 0.767125
-0.011733 -0.069474 0.087316 0.009421 -0.378005 0.925756
0.034558 -0.038427 -0.129546 0.886753 -0.458447 -0.059123
-0.022592 0.052783 0.087122 -0.129783 0.711082 0.691028
-0.066069 0.021088 0.028270 -0.843552 0.534068 -0.056487
-0.037056 0.037147 -0.092038 -0.413870 0.908402 -0.059304
0.036090 0.019729 0.085464 0.412058 0.295916 0.861767
-0.066872 0.006374 0.087277 -0.348589 0.119028 0.929687
0.018781 0.040532 0.033783 0.502076 0.863314 -0.051077
0.021683 0.035473 -0.009632 0.576255 0.814946 -0.061585
-0.060284 0.033852 0.088144 -0.156728 -0.029030 0.987215
-0.040723 -0.068788 0.024352 -0.435581 -0.899022 -0.045032
-0.066599 -0.028235 -0.109553 -0.964908 -0.260674 -0.031650
-0.035057 -0.058992 0.089423 -0.138956 -0.291167 0.946527
0.055863 0.051585 0.064988 0.537564 -0.829574 -0.151101
-0.065806 -0.068153 0.062663 -0.334317 -0.585756 -0.738324
0.004753 -0.066317 -0.094748 0.318748 -0.946522 -0.049964
0.053308 0.063016 -0.008864 -0.861932 0.503186 0.062273
0.015102 -0.060433 -0.114775 0.515117 -0.855412 -0.054085
0.030045 -0.051532 -0.064029 0.732785 -0.678892 -0.046170
0.006600 -0.068587 -0.038533 0.341264 -0.938790 -0.047030
0.014063 -0.059797 -0.135911 0.510256 -0.842283 -0.173778
0.031986 0.004896 -0.143260 0.524744 0.219972 -0.822348
-0.064919 -0.046559 0.010921 -0.832603 -0.551595 -0.050145
-0.074098 -0.069557 0.068930 -0.517782 -0.492161 0.699771
0.040852 0.046244 -0.034348 -0.776918 -0.407568 0.479883
0.043129 0.017231 0.084456 -0.880245 -0.450771 0.148237
0.031919 0.040116 -0.046031 -0.716151 0.599861 0.356783
0.008966 -0.064445 -0.099285 0.402146 -0.914191 -0.050330
0.031828 0.027388 -0.044516 0.373578 0.315277 0.872376
0.039032 -0.043313 -0.013368 0.862394 -0.504121 -0.046242
-0.000797 0.041768 -0.069311 0.247589 0.967726 -0.046961
-0.079050 -0.019088 0.084753 -0.987013 -0.158742 -0.024635
-0.023964 -0.076449 0.076111 -0.167792 -0.980083 -0.106220
0.050227 0.062822 0.064588 -0.599628 0.799146 0.042571
0.010370 0.044884 0.039237 0.375778 0.925947 -0.037592
0.037014 -0.037838 0.087765 0.313254 -0.152958 0.937270
0.058836 0.057775 0.001411 -0.996899 -0.076790 0.017208
0.048273 0.025896 0.080834 0.695438 -0.554859 -0.456615
0.035039 0.011390 -0.114192 0.886956 0.459164 -0.049767
0.046414 -0.033716 0.083545 -0.191722 0.044433 0.980443
0.016831 0.031128 -0.119963 0.562189 0.824660 -0.062279
-0.058269 0.026358 -0.026022 -0.740084 0.670480 -0.052269
0.047487 0.006814 0.083020 -0.680459 -0.147881 0.717709
-0.012548 0.022325 -0.144437 0.022013 -0.127623 -0.991578
0.049288 0.031616 0.080732 0.311041 0.093166 0.945819
-0.065087 0.004834 0.087934 -0.186813 0.069871 0.979908
0.063045 0.050707 -0.027348 0.730257 0.632520 -0.258153
-0.009901 0.040609 -0.118092 0.064817 0.996240 -0.057492
-0.052760 0.024672 -0.112783 -0.692853 0.718184 -0.064540
-0.031666 0.038524 -0.103615 -0.324754 0.944219 -0.054632
0.028171 0.009783 0.085571 -0.533811 -0.277352 0.798825
0.046203 0.015732 0.080903 0.898164 0.429705 -0.093035
-0.073345 -0.038446 0.081967 -0.940707 -0.298362 -0.161404
-0.044547 0.012064 0.079470 0.482125 -0.364085 0.796867
0.035143 0.043644 -0.043694 -0.688379 0.711623 -0.140453
-0.040927 -0.048132 -0.146122 -0.235032 -0.218065 -0.947210
0.021411 0.028542 -0.110031 0.649630 0.758401 -0.052997
0.014096 -0.045034 -0.146170 -0.304113 0.370612 -0.877589
-0.008125 -0.037337 0.078307 0.965153 -0.212019 0.153388
-0.008473 0.050240 0.082343 -0.077328 -0.309094 0.947883
-0.044668 0.032707 -0.096369 -0.548706 0.833387 -0.066241
-0.033066 0.046784 0.036707 -0.298581 0.953340 -0.044635
0.037745 -0.039100 -0.076019 0.893337 -0.446698 -0.049096
-0.004353 0.038199 -0.138499 0.156618 0.923154 -0.351081
0.064348 0.048195 -0.026520 0.654398 -0.755228 0.037329
0.046806 0.056511 0.029791 -0.314434 0.947538 -0.057475
0.012104 -0.007675 0.071591 -0.240937 -0.058084 0.968801
0.054810 0.050162 0.069264 0.202841 -0.907224 -0.368512
-0.066097 -0.018682 -0.139249 -0.900861 -0.076365 -0.427337
0.002536 0.005580 -0.143914 -0.029772 -0.032706 -0.999021
0.006821 0.023341 -0.146757 -0.017571 0.021304 -0.999619
0.022131 -0.061720 0.085719 0.288671 -0.439114 0.850792
-0.047656 0.030392 0.087493 -0.141555 0.207966 0.967839
0.034200 -0.057184 0.088849 -0.004690 0.040354 0.999174
-0.021037 -0.019121 -0.143015 0.014397 -0.004464 -0.999886
-0.002233 0.051680 0.087418 0.049241 0.484686 0.873301
-0.074242 -0.003730 0.008766 -0.988824 0.138242 -0.055825
-0.071095 0.019908 0.083127 -0.872081 0.476574 -0.111138
0.005241 -0.075732 0.085765 0.287968 -0.955766 -0.059890
0.051548 0.047216 0.062728 0.715699 -0.697729 0.030809
0.034029 -0.030691 -0.142454 0.621077 -0.226749 -0.750232
0.050043 0.049622 -0.009656 0.131056 0.987557 -0.086919
0.001803 -0.075995 0.088890 -0.216763 -0.020219 0.976015
0.001414 -0.053955 -0.146857 0.016628 -0.021645 -0.999627
-0.039557 0.043933 0.030050 -0.407380 0.911353 -0.058971
0.043948 0.033678 0.064837 0.142329 -0.077919 -0.986748
0.003404 0.038691 -0.102543 0.320096 0.945447 -0.060564
0.069018 0.052484 0.046379 0.980915 0.168800 0.096497
-0.028637 0.039275 -0.107165 -0.266462 0.961760 -0.063363
0.055810 0.059446 -0.023401 0.651597 0.733960 -0.191637
-0.054915 0.030940 -0.011953 -0.679128 0.731615 -0.059367
0.043948 0.033678 0.064837 0.142329 -0.077919 -0.986748
0.042163 0.019599 0.066008 0.856249 0.504288 -0.111939
0.040277 -0.010200 -0.129902 0.995436 0.072956 -0.061523
0.046702 0.042182 0.078835 0.253188 0.250151 0.934516
-0.065093 -0.032874 -0.109451 -0.932277 -0.357812 -0.053191
0.038430 0.041516 -0.043592 0.397088 0.600246 -0.694281
0.033155 0.023078 -0.043218 0.622084 0.357163 0.696740
0.042540 0.037997 0.066760 0.536251 -0.528205 0.658357
-0.001590 -0.023874 0.070125 0.427438 -0.070102 0.901323
0.048777 0.047634 -0.024668 -0.109811 0.979198 -0.170623
-0.000780 0.044001 -0.030529 0.221476 0.971814 -0.080778
-0.063114 0.013547 -0.086486 -0.886032 0.460414 -0.054467
0.003981 -0.032344 0.071911 -0.190995 0.237752 0.952363
0.025297 0.032878 -0.068752 -0.509498 -0.185118 0.840323
-0.043956 -0.058765 -0.124812 -0.567721 -0.821896 -0.046686
-0.047079 0.031445 -0.091489 -0.591040 0.804215 -0.062529
-0.077249 -0.029355 0.085515 -0.968771 -0.246797 0.023947
0.042371 -0.021127 -0.087777 0.989629 -0.129566 -0.062025
0.002903 0.025103 -0.146816 0.039579 -0.131098 -0.990579
0.067086 0.054809 0.047577 0.755973 0.648112 0.091958
0.052160 0.053643 -0.037199 -0.731364 -0.528836 0.430626
-0.060935 -0.043002 -0.096841 -0.848845 -0.526247 -0.050262
-0.064534 0.005087 -0.122906 -0.937557 0.343021 -0.057649
0.034070 0.020534 -0.045958 0.847446 0.327988 -0.417444
-0.045911 0.038524 -0.001162 -0.516267 0.854312 -0.060169
-0.070121 -0.043399 0.080900 0.154615 -0.795348 0.586103
0.039669 -0.020703 -0.135700 0.977560 -0.123468 -0.170682
-0.024039 0.041669 -0.086501 -0.199160 0.978024 -0.061673
0.031459 0.024290 -0.042325 0.739119 0.565492 0.365953
-0.067578 0.019632 0.038987 -0.861383 0.506858 -0.033374
-0.030423 0.047378 0.033158 -0.257217 0.964838 -0.054100
0.032300 0.017787 -0.092740 0.807449 0.587501 -0.053564
0.017195 -0.046758 -0.144717 0.294469 -0.371935 -0.880314
-0.026714 -0.056472 0.090666 -0.084050 -0.243589 0.966230
0.029469 0.028387 -0.051673 -0.352678 0.895135 -0.272673
0.058276 0.045205 0.022077 0.873225 0.486047 -0.035159
0.040222 -0.023965 -0.117681 0.980552 -0.188254 -0.055484
0.039555 -0.030179 -0.104080 0.954253 -0.292757 -0.060787
-0.037333 -0.069837 0.014859 -0.386865 -0.921237 -0.040727
0.045198 0.047089 -0.030851 0.635569 0.648448 -0.419007
-0.056832 0.025191 -0.057943 -0.735997 0.671749 -0.084039
0.051080 -0.006018 0.069526 0.989537 0.085608 -0.116138
0.061161 0.042590 0.072328 0.852447 -0.245401 0.461642
0.054303 0.062102 0.055347 -0.802029 -0.533193 -0.269173
-0.028541 -0.002706 0.069791 0.096540 -0.093105 0.990965
0.043872 -0.038521 0.032483 0.909067 -0.414510 -0.042173
0.042540 0.037997 0.066760 0.536251 -0.528205 0.658357
-0.013667 0.047368 -0.000199 0.010558 0.997761 -0.066046
0.045764 -0.038095 0.087783 -0.648692 0.297979 0.700290
-0.025653 0.043319 -0.050593 -0.189973 0.980075 -0.057985
-0.052898 -0.031312 0.083042 0.561444 0.274840 0.780541
0.014803 0.036297 -0.055676 0.482600 0.873530 -0.063578
0.051055 -0.004200 0.087886 -0.068678 -0.164995 0.983900
0.045261 0.040986 0.066031 0.697129 -0.389374 0.601997
-0.062444 -0.057106 0.055727 0.483454 0.370935 0.792893
0.010933 -0.029342 0.072893 -0.296189 0.221534 0.929083
0.019929 -0.059342 -0.081405 0.563298 -0.824830 -0.048484
-0.033617 0.039947 -0.069835 -0.337282 0.939566 -0.058789
0.053033 0.048340 -0.022900 0.724734 -0.688868 0.014886
-0.078513 -0.062448 0.070813 -0.713644 -0.512107 0.477974
0.041260 0.009288 -0.029917 0.918957 0.388901 -0.065382
0.000146 -0.051942 -0.144625 -0.179543 0.387642 -0.904156
0.042612 0.053015 0.060438 -0.530825 0.823620 0.199687
-0.030960 0.051345 0.086985 -0.338949 0.851038 0.401058
0.046376 0.031110 0.066112 0.390597 -0.655330 0.646511
-0.033168 0.038856 -0.089754 -0.342940 0.937532 -0.058529
0.032530 0.030850 -0.045594 0.156596 0.175659 0.971916
0.042192 0.015779 0.029506 0.885139 0.461418 -0.060192
0.048663 0.055433 0.045724 0.604567 0.790520 0.097862
0.003045 0.050631 0.087389 0.160556 0.462603 0.871906
-0.077566 -0.010450 0.069518 -0.993502 0.026304 -0.110732
-0.066225 -0.023821 -0.135066 -0.975223 -0.186350 -0.119221
0.036110 -0.000182 0.088088 -0.183653 -0.037349 0.982281
0.049682 -0.004006 0.054034 0.992475 0.118533 -0.030703
0.042738 -0.046107 0.088461 0.102595 -0.103672 0.989306
0.039652 -0.032344 -0.091433 0.945295 -0.320477 -0.060924
0.038776 0.024466 0.084508 -0.798497 -0.574249 0.180668
-0.070064 0.014271 0.083972 -0.528003 0.261313 0.808040
0.041298 -0.021716 -0.104932 0.989328 -0.135406 -0.053800
-0.016770 0.009121 0.092712 -0.744086 0.253923 0.617947
0.008648 -0.007343 0.070705 -0.194763 -0.039067 0.980072
-0.020305 0.041871 -0.091721 -0.086612 0.993553 -0.073154
0.047655 -0.028396 0.036421 0.965861 -0.256784 -0.034281
0.068386 0.052532 0.051565 0.894019 0.417857 0.161635
-0.059338 0.025556 -0.021353 -0.761252 0.646221 -0.053791
0.050051 0.045388 -0.037914 0.707826 -0.706244 -0.014224
-0.067821 0.023024 0.073261 -0.840288 0.528301 -0.121716
-0.069029 -0.069490 0.065104 -0.349092 -0.546311 -0.761367
0.037772 0.008284 -0.093410 0.912501 0.405290 -0.055512
0.038179 0.001849 -0.128531 0.952929 0.298182 -0.054891
0.012556 0.041483 0.001381 0.415771 0.907544 -0.059142
-0.066224 -0.033934 -0.081704 -0.931995 -0.358805 -0.051431
-0.068579 0.023397 0.080003 -0.837537 0.532472 -0.122492
0.024663 0.026369 -0.096203 0.682234 0.729527 -0.048444
0.057052 0.055412 -0.012798 -0.823032 0.563662 0.070026
-0.053866 -0.061737 0.082472 -0.670908 -0.741462 -0.010808
-0.055721 -0.007887 0.081815 0.609800 -0.062443 0.790091
0.009171 0.038044 -0.073327 0.416594 0.907828 -0.047940
-0.070181 -0.034859 -0.002624 -0.929281 -0.365254 -0.055015
-0.011211 -0.049995 0.087624 0.984485 -0.106470 0.139473
0.047204 0.001372 0.021438 0.971989 0.228209 -0.056199
-0.074008 -0.011248 -0.007593 -0.998190 0.031207 -0.051401
-0.005132 -0.072422 -0.020209 0.144551 -0.988644 -0.041080
0.012483 0.047240 0.079810 0.393774 0.909307 -0.134547
-0.048824 -0.054314 -0.134697 -0.654690 -0.747725 -0.110853
0.045081 0.052693 -0.016327 0.104379 0.980153 -0.168535
0.038149 -0.035212 -0.097853 0.918029 -0.391515 -0.062762
-0.022986 0.039047 -0.133434 -0.166296 0.979794 -0.111124
0.027093 0.012015 -0.143825 0.401229 0.233486 -0.885720
0.019118 0.017735 -0.144691 0.325247 0.286500 -0.901184
-0.011607 0.040178 -0.126447 0.025627 0.998602 -0.046232
0.024894 -0.057562 -0.048752 0.649808 -0.758840 -0.043720
-0.072150 0.004342 0.002407 -0.957314 0.283705 -0.055329
0.019680 -0.059793 -0.076438 0.557039 -0.829145 -0.047181
0.002284 -0.008605 0.071827 0.781672 -0.354374 0.513233
-0.049271 0.031944 -0.061382 -0.606924 0.792264 -0.062938
0.040701 0.035249 0.064322 0.114665 0.049123 -0.992189
0.024119 0.027901 -0.076989 0.662446 0.739498 -0.119620
0.018935 -0.060682 0.087189 0.235490 -0.345860 0.908254
-0.072302 -0.033933 0.031802 -0.937947 -0.344090 -0.043106
-0.076077 -0.031293 0.082026 -0.946376 -0.291526 -0.139229
-0.036140 0.047255 0.084442 0.341466 -0.913002 0.223224
0.055965 0.060648 0.008918 -0.790025 -0.603013 0.110621
0.015224 0.040740 0.084176 0.246392 0.454288 0.856104
0.023016 -0.057245 -0.078536 0.627950 -0.776538 -0.051648
0.033204 -0.045948 -0.084017 0.814725 -0.577450 -0.052666
0.039127 0.047195 0.077502 -0.258990 -0.219105 -0.940700
0.045876 0.006048 0.022058 0.945995 0.318988 -0.057786
0.041981 -0.029415 -0.066976 0.963781 -0.260920 -0.055193
-0.034296 0.041196 -0.045172 -0.382454 0.920168 -0.083789
0.035807 0.028584 0.065449 0.806843 0.460306 0.370299
0.007656 -0.060279 0.088769 -0.003900 0.020629 0.999780
0.031839 -0.041091 -0.138768 0.801363 -0.478100 -0.359498
0.057758 0.060691 0.038401 -0.678496 -0.734509 -0.011777
0.031919 0.031228 -0.051794 -0.716015 0.696291 -0.050004
0.065581 0.050984 -0.015997 0.927958 0.334589 -0.164145
-0.005707 0.052497 0.081212 0.120916 0.983020 -0.138025
0.042226 0.037858 -0.047687 0.732328 -0.675730 -0.084171
-0.028769 0.015930 -0.144193 0.030833 -0.068121 -0.997201
0.001431 -0.073960 0.044203 0.230304 -0.972900 -0.020653
-0.017337 0.019867 0.079060 -0.971759 0.066144 0.226515
0.049594 0.002316 0.068337 0.965544 0.231413 -0.119048
-0.073887 -0.052469 0.071461 -0.825718 0.481136 -0.294446
0.047734 -0.029705 0.083463 -0.354172 0.119020 0.927575
0.048184 -0.027531 0.048310 0.969077 -0.245226 -0.027472
-0.004505 -0.074616 0.029443 0.148591 -0.987947 -0.043379
0.029097 0.042373 0.080654 -0.182010 -0.073999 -0.980508
0.018370 0.015134 -0.146615 0.411603 0.285690 -0.865427
-0.068317 0.022840 0.075787 -0.843261 0.522442 -0.126356
0.004343 -0.065183 -0.118776 0.320160 -0.946114 -0.048637
-0.065806 -0.068153 0.062663 -0.334317 -0.585756 -0.738324
-0.067002 -0.008961 -0.133292 -0.993717 0.084296 -0.073629
0.054679 0.041034 0.061038 0.698750 0.321895 0.638852
0.021021 0.031402 -0.067196 0.558264 0.829658 0.002812
-0.068567 -0.018694 -0.101714 -0.991637 -0.117404 -0.053601
0.018879 0.041075 0.048085 0.492470 0.869552 -0.036773
-0.003435 -0.021020 0.077488 0.942446 -0.311392 0.121784
0.052381 0.042776 0.035679 -0.419735 -0.902977 0.091954
0.019725 -0.057987 -0.105565 0.576967 -0.814937 -0.054647
0.061969 0.056547 0.030424 -0.052218 -0.998581 0.010433
0.059586 0.059047 0.044967 -0.959852 -0.258055 -0.109963
-0.078372 -0.006815 0.088457 0.319789 0.013430 0.947394
-0.024406 0.049534 0.055999 -0.154895 0.987087 -0.040822
0.068869 0.053052 0.040468 0.942523 0.331296 0.043519
0.050102 0.034563 0.065090 0.716399 -0.697623 0.009663
0.040470 -0.032170 -0.078637 0.949729 -0.309174 -0.049258
0.044892 0.000889 -0.017467 0.969131 0.239807 -0.057257
0.035466 0.013654 -0.084940 0.857745 0.512341 -0.042192
0.034808 0.039526 -0.044660 -0.495311 -0.161880 0.853500
-0.075534 -0.068210 0.069015 -0.706555 -0.286737 0.646964
0.044596 0.012736 0.082301 -0.276301 -0.059306 0.959239
0.012360 -0.070481 0.057383 0.405811 -0.913787 -0.017645
-0.004404 -0.027802 0.072314 0.840393 -0.208716 0.500177
-0.035666 0.049684 0.083421 -0.318161 0.938706 -0.132681
-0.036360 0.042178 -0.017277 -0.370554 0.927283 -0.053243
-0.065068 -0.028120 -0.135951 -0.949837 -0.279830 -0.139657
0.043087 -0.009298 -0.077793 0.994348 0.088374 -0.058834
-0.059451 0.016530 -0.112990 -0.835208 0.545903 -0.066456
0.042714 0.051993 -0.049440 -0.826556 -0.003370 0.562844
0.053126 0.040991 -0.052315 0.593393 0.432463 -0.678867
0.017668 -0.012362 0.073467 -0.445715 -0.005219 0.895160
-0.063738 -0.047874 0.005889 -0.815597 -0.576992 -0.043376
0.029683 0.039509 0.063437 -0.015697 0.663826 -0.747722
-0.067138 -0.046356 0.079912 -0.680702 -0.708840 -0.184905
0.040186 0.030498 0.063666 0.392686 0.158075 -0.905986
-0.062795 -0.034814 0.088304 -0.207580 -0.069947 0.975714
0.014444 0.017968 -0.146769 -0.189140 -0.030269 -0.981483
0.060305 0.050143 0.068866 0.576364 0.519189 0.631069
-0.070499 -0.013082 -0.070598 -0.997773 0.015421 -0.064895
0.062195 0.047578 0.069198 0.606454 0.437710 0.663795
0.010646 0.044519 0.034419 0.377389 0.924326 -0.056552
0.007963 0.043571 0.003710 0.350866 0.934525 -0.059643
0.054843 0.050404 0.044542 0.963167 -0.268886 -0.003105
0.050266 -0.008891 0.057884 0.997838 0.048456 -0.044398
0.030744 0.031316 0.082899 0.431131 0.418438 0.799397
0.007431 0.010575 0.091322 0.699382 -0.277065 0.658863
-0.058008 -0.057248 0.042636 -0.707503 -0.706242 -0.025701
-0.033476 -0.030203 0.080667 -0.882821 0.458959 0.099916
-0.016244 0.019866 0.088615 -0.940131 0.187134 0.284841
-0.076388 0.005779 0.080084 -0.959212 0.256656 -0.118487
0.055032 0.040942 -0.013131 0.191859 -0.981422 -0.001293
0.029858 0.038596 -0.047101 -0.768144 0.614315 -0.180475
0.042191 -0.033098 -0.042324 0.943337 -0.327766 -0.051811
0.038338 0.017337 -0.011815 0.847650 0.527809 -0.053918
-0.036350 0.045919 0.043730 -0.349448 0.936206 -0.037469
-0.049828 -0.069555 0.083743 -0.297456 0.171918 0.939129
0.042119 -0.041823 0.029901 0.882319 -0.468773 -0.042005
0.052187 0.060909 0.066420 0.491417 0.685562 0.537136
-0.052435 -0.059014 -0.012901 -0.649894 -0.758678 -0.045231
0.047916 0.049131 0.073805 -0.670006 0.166585 -0.723423
-0.027802 -0.041842 -0.143763 0.046468 0.065112 -0.996795
0.022715 -0.056395 -0.095816 0.638520 -0.768027 -0.049259
0.009252 0.002204 0.072276 0.085681 -0.330219 0.940008
0.052611 -0.004302 0.084707 0.985912 0.133324 0.101004
-0.068674 -0.061540 0.061819 0.583679 0.334752 0.739770
0.058604 0.043180 0.019086 0.928807 -0.367125 -0.050373
0.030147 -0.045404 -0.131280 0.806472 -0.588366 -0.058555
0.057909 0.060577 0.042309 -0.644352 -0.762200 -0.062142
-0.051308 -0.063080 0.047003 -0.595392 -0.803068 -0.024288
0.037439 0.032805 -0.062295 0.408955 -0.808106 0.423934
-0.004730 -0.057403 -0.145018 0.130812 -0.580452 -0.803718
-0.010124 0.040832 -0.114994 0.052380 0.996218 -0.069319
-0.045494 -0.053083 -0.142299 -0.438724 -0.545479 -0.714124
0.018238 0.031719 0.087133 0.207062 0.284045 0.936186
-0.003034 0.052689 0.084592 0.170621 0.985303 0.008129
-0.054465 0.028544 0.086415 -0.259832 0.288836 0.921445
-0.075355 -0.008427 0.020747 -0.996132 0.070391 -0.052602
0.025297 0.032878 -0.068752 -0.509498 -0.185118 0.840323
0.043589 -0.034063 -0.009226 0.935696 -0.349253 -0.049957
0.003734 -0.002865 0.075202 0.890677 -0.404458 0.207624
-0.075799 -0.009045 0.028666 -0.997327 0.052499 -0.050819
0.047210 0.032629 0.066346 0.375052 -0.253598 0.891641
-0.009574 0.020454 0.092682 -0.012964 0.192062 0.981297
-0.059691 -0.055312 0.083740 -0.590698 -0.590686 0.549696
-0.014318 -0.073611 -0.006585 -0.007803 -0.998905 -0.046119
-0.068185 -0.045149 0.078639 0.064970 -0.996010 -0.061175
0.054633 0.041337 -0.011117 -0.435651 -0.852461 0.288996
0.026410 0.030046 -0.042988 0.542731 0.668815 0.508064
-0.055762 -0.047632 -0.126542 -0.779386 -0.624779 -0.046994
-0.066938 -0.018984 0.088305 -0.137470 -0.037411 0.989799
-0.029638 0.040785 -0.077575 -0.275563 0.959872 -0.052059
0.013390 0.012279 0.077807 -0.032138 -0.648562 0.760483
0.041187 0.018431 0.035430 0.865648 0.497730 -0.054023
-0.005429 -0.078065 0.086015 0.136076 -0.988672 0.063340
-0.012745 -0.075924 0.061297 0.006597 -0.998996 -0.044304
-0.057277 0.033639 0.059739 -0.687900 0.724230 -0.047803
-0.037447 -0.003940 0.071550 0.274190 -0.086745 0.957755
0.038697 -0.049967 0.086051 -0.776352 0.567879 0.273481
-0.063793 0.016681 -0.048082 -0.860401 0.506270 -0.058322
-0.047865 -0.066778 0.080014 -0.880989 0.136136 0.453129
0.006615 -0.073293 0.086097 -0.287932 0.901908 0.321959
-0.041331 -0.060609 -0.122289 -0.512285 -0.857430 -0.048769
0.038867 0.033825 -0.061652 0.135355 -0.779454 0.611662
0.010877 -0.064753 -0.077244 0.424195 -0.904294 -0.048070
0.046572 0.050075 -0.008353 -0.765292 -0.631863 0.122790
0.047700 0.047490 -0.048486 -0.875041 -0.036374 0.482681
-0.064044 0.023039 0.017370 -0.811455 0.582057 -0.052441
0.030045 -0.051532 -0.064029 0.732785 -0.678892 -0.046170
0.053933 0.048386 0.006308 0.991850 0.102502 -0.075679
-0.016151 0.040395 -0.119473 -0.047589 0.997725 -0.047749
0.043615 0.020063 0.078058 0.868266 0.470127 -0.158414
0.042398 -0.033636 -0.034894 0.939834 -0.338357 -0.047185
-0.024435 -0.000901 0.070368 -0.538778 0.128822 0.832540
-0.064382 -0.053457 0.056118 0.789653 -0.225620 0.570564
0.051576 0.052279 0.045419 0.436568 0.898313 0.049416
-0.064229 -0.003529 -0.141128 -0.778688 0.170174 -0.603892
-0.003429 -0.075075 0.083571 -0.011961 0.330633 0.943684
0.044179 0.050230 -0.052315 0.406401 0.599040 -0.689920
0.068178 0.052176 0.010248 0.992623 0.111402 -0.047845
-0.045494 -0.053083 -0.142299 -0.438724 -0.545479 -0.714124
0.054753 0.064710 0.014412 -0.956548 0.282349 0.072773
0.038661 0.014831 -0.028398 0.879350 0.472302 -0.060613
0.015205 0.042886 0.045073 0.444557 0.895144 -0.032969
-0.030423 0.047378 0.033158 -0.257217 0.964838 -0.054100
-0.065746 -0.006115 -0.139328 -0.910081 0.120748 -0.396449
0.045199 -0.023542 -0.031510 0.985020 -0.166809 -0.043698
0.053545 0.042897 -0.006758 -0.638342 -0.767005 0.064982
0.048256 0.035306 0.064543 0.019855 -0.379482 -0.924986
0.053951 0.063580 -0.001536 -0.933809 0.356759 0.026909
-0.028637 0.039275 -0.107165 -0.266462 0.961760 -0.063363
0.042260 0.017670 0.048736 0.878331 0.476770 -0.034984
0.057516 0.056920 -0.014072 -0.969895 -0.183599 0.159985
-0.019318 0.050544 0.082490 -0.020734 -0.633603 0.773381
-0.033939 0.036980 -0.114174 -0.378790 0.923737 -0.056823
-0.074725 0.004762 0.083259 0.367975 -0.077682 0.926585
-0.015646 0.051927 0.072665 -0.021748 0.991419 -0.128901
0.023941 -0.049531 0.088852 -0.002129 -0.007465 0.999970
0.018121 -0.048777 0.086621 -0.402322 0.463683 0.789389
-0.042276 -0.067791 0.020541 -0.474824 -0.879242 -0.038409
-0.054108 0.033917 0.017323 -0.651229 0.756813 -0.055991
-0.003577 -0.076107 0.088378 -0.148700 0.804506 0.575029
0.032830 0.033412 0.071797 0.079601 0.973026 -0.216526
-0.007902 -0.072853 -0.017632 0.096519 -0.994315 -0.044959
0.036006 -0.031396 -0.139582 0.844287 -0.288884 -0.451359
-0.076099 -0.015029 0.033510 -0.998101 -0.043009 -0.044091
-0.036424 0.035376 0.087863 -0.008099 0.064301 0.997898
-0.074445 -0.067827 0.067238 -0.638169 -0.390382 -0.663583
0.018855 0.020790 -0.144143 0.261987 0.312124 -0.913204
0.056884 0.041693 0.075779 0.425418 0.251525 0.869342
0.049801 0.047108 0.042876 -0.712090 -0.598962 0.366295
-0.011199 -0.053585 0.086256 0.937967 0.202195 0.281666
0.051684 0.046672 -0.018077 0.990311 -0.084114 -0.110498
-0.047287 0.042123 0.086538 0.451709 -0.795978 0.402962
0.051703 0.050047 -0.016656 -0.615326 0.787858 -0.025553
0.038707 -0.040507 -0.047398 0.878498 -0.474871 -0.052333
0.044983 0.045294 0.073846 -0.773286 0.570294 -0.277117
0.040852 0.046244 -0.034348 -0.776918 -0.407568 0.479883
-0.011662 0.013890 -0.143948 -0.008876 -0.049893 -0.998715
-0.048151 -0.019998 -0.144205 0.117799 0.037649 -0.992324
-0.022844 0.040321 -0.110462 -0.144360 0.987879 -0.057062
-0.063746 0.016841 0.086497 -0.356137 0.230485 0.905562
0.053763 0.034364 0.078346 0.811140 -0.511405 0.283756
-0.004953 0.030561 0.090406 0.016617 0.243113 0.969856
-0.062415 -0.011257 0.087165 0.495636 -0.010297 0.868470
0.050706 -0.000592 0.072318 0.977682 0.175174 -0.115981
0.032825 -0.048389 -0.062543 0.794351 -0.605507 -0.048666
-0.063352 -0.047784 0.067235 -0.747101 -0.660801 0.071985
-0.033141 -0.030177 -0.143518 0.055333 0.035143 -0.997849
-0.027697 -0.074878 0.085710 0.206362 0.941803 0.265372
0.005742 0.041106 -0.046284 0.345659 0.936322 -0.061816
0.026302 -0.016778 0.079705 -0.617640 0.071094 0.783241
0.037919 -0.049927 0.083555 -0.248433 0.108942 0.962503
-0.003694 -0.053973 0.082340 -0.099801 0.622056 0.776586
0.026745 -0.062850 0.070225 0.616107 -0.780511 -0.105901
0.025080 0.031544 -0.047282 0.121070 0.804695 -0.581212
0.034790 0.041113 0.079761 -0.201602 -0.126192 -0.971304
-0.028855 -0.069877 -0.044339 -0.260635 -0.964427 -0.044151
-0.033690 -0.069628 -0.018052 -0.331138 -0.942521 -0.044731
0.047869 -0.011171 0.003399 0.997900 0.033896 -0.055190
0.042804 0.050693 -0.028489 -0.364868 0.928637 -0.067122
0.007244 -0.069415 0.085596 0.184243 -0.514117 0.837698
0.035718 0.032027 0.086899 0.521577 0.458601 0.719474
0.042014 -0.021828 -0.092529 0.988889 -0.137869 -0.055598
0.034200 -0.057184 0.088849 -0.004690 0.040354 0.999174
-0.027403 -0.068751 -0.076056 -0.236404 -0.970519 -0.046973
-0.071274 -0.041161 0.074112 -0.963323 -0.216075 -0.159122
-0.056963 -0.068373 0.070836 -0.471843 0.838874 0.271394
-0.076948 -0.066345 0.069051 -0.709549 -0.613887 -0.345953
-0.073684 -0.022014 -0.000620 -0.986603 -0.155208 -0.050241
-0.035925 -0.052263 0.090756 -0.171662 -0.196804 0.965298
0.058565 0.057204 0.039629 -0.775585 0.631041 -0.015963
0.060133 0.055528 0.036488 0.582187 -0.812973 0.011565
-0.050729 0.011886 0.083405 0.527669 -0.329568 0.782912
-0.000223 0.038333 -0.130579 0.254078 0.965244 -0.061222
0.034986 0.030433 0.066768 0.998466 -0.054247 0.011055
-0.009975 0.026226 -0.144785 -0.008337 -0.433017 -0.901347
-0.076144 -0.010245 0.034360 -0.998120 0.038919 -0.047345
0.003335 0.044871 -0.000470 0.274674 0.959659 -0.060075
0.049523 0.002302 0.087555 -0.596768 -0.231087 0.768418
0.046916 -0.008142 -0.009589 0.994008 0.092237 -0.058661
0.044326 0.020875 0.083233 0.867428 0.179489 0.464060
0.050197 0.053806 0.041540 0.707584 0.706411 0.017534
0.007516 -0.011087 -0.143430 -0.035119 -0.026715 -0.999026
-0.070242 0.022256 0.086213 -0.869011 0.494785 0.002767
0.041805 0.036481 -0.045037 0.803256 -0.186368 -0.565727
0.042406 0.045266 0.065005 0.198309 0.335833 0.920809
-0.006835 -0.052526 0.080711 0.093568 0.629785 0.771113
-0.020722 0.035533 -0.142793 -0.079329 0.646705 -0.758604
0.015065 0.033076 -0.106765 0.508679 0.860118 -0.037981
-0.061284 -0.053406 0.038115 -0.763216 -0.645468 -0.029526
-0.061116 -0.054183 0.083202 -0.722702 -0.609712 0.325504
0.025281 -0.050725 -0.136338 0.710428 -0.671264 -0.211416
0.045394 0.021050 0.081813 0.921401 -0.203837 -0.330864
-0.054680 -0.066827 0.070220 -0.641086 0.704265 0.304992
0.055415 0.065129 0.013214 0.134179 0.989310 -0.057111
0.031784 -0.051521 -0.039280 0.764296 -0.643338 -0.044353
0.007017 0.008710 0.090454 0.824385 -0.411045 0.389141
-0.063966 0.013422 -0.074107 -0.885957 0.460161 -0.057720
0.043700 -0.027646 -0.044874 0.968706 -0.243027 -0.050466
0.058209 0.045615 0.035898 0.803119 0.594616 0.037829
0.043129 0.017231 0.084456 -0.880245 -0.450771 0.148237
-0.022299 -0.075522 0.065234 -0.142511 -0.986885 -0.075824
0.033072 0.021378 -0.047978 0.815909 0.538721 -0.209933
0.045465 0.053603 0.004217 -0.993370 0.092407 0.068388
0.054721 0.049517 0.022322 0.995365 0.067768 -0.068235
0.039046 -0.049369 0.067564 0.806526 -0.581959 -0.104112
0.034808 0.039526 -0.044660 -0.495311 -0.161880 0.853500
0.040214 0.047055 -0.057087 0.341931 0.587528 -0.733413
-0.050567 0.025772 -0.124298 -0.677386 0.733810 -0.051688
-0.006807 0.042477 -0.080970 0.160025 0.985678 -0.053211
0.046526 0.053912 -0.004752 0.151133 0.974655 -0.164946
0.060087 0.059825 -0.001015 0.693954 0.712233 -0.105602
0.042534 0.002035 -0.050128 0.959966 0.275293 -0.051761
0.004607 -0.059185 -0.143553 0.179436 -0.477522 -0.860102
-0.068394 0.014466 0.005015 -0.893538 0.445672 -0.054470
-0.059594 0.020982 -0.067180 -0.794882 0.604584 -0.051390
-0.007737 -0.068534 -0.106450 0.111700 -0.992297 -0.053578
0.031072 0.033398 0.085213 -0.612515 -0.760194 0.216634
0.030258 -0.040560 -0.141507 0.617454 -0.427807 -0.660100
-0.065436 -0.048737 0.083111 -0.765765 -0.533164 0.359638
-0.073941 -0.032447 0.067106 -0.942922 -0.317186 -0.101445
0.026745 -0.062850 0.070225 0.616107 -0.780511 -0.105901
-0.056613 -0.059843 0.054923 0.018890 0.887387 0.460639
-0.023843 -0.072372 -0.014685 -0.167447 -0.984884 -0.044337
0.014063 -0.059797 -0.135911 0.510256 -0.842283 -0.173778
0.027731 -0.052459 -0.082626 0.725112 -0.687078 -0.046221
0.003677 -0.071442 -0.000514 0.280199 -0.958841 -0.045961
0.042131 0.022700 0.078298 0.829285 0.530195 -0.176576
-0.050846 -0.038775 -0.144991 -0.439139 -0.300283 -0.846751
0.058182 0.053480 0.024102 0.655035 -0.755570 0.006562
-0.020933 -0.071047 -0.051904 -0.125539 -0.991019 -0.046055
0.045523 0.011765 0.058073 0.917827 0.394277 -0.046251
-0.035030 -0.069846 -0.003152 -0.345610 -0.937248 -0.046040
-0.027316 -0.070103 -0.047871 -0.232366 -0.971687 -0.042793
0.038918 0.022800 0.046450 0.813026 0.581110 -0.036043
0.023942 0.039027 0.084384 -0.540508 -0.824494 0.167513
0.048287 0.047605 0.061688 -0.224027 0.870705 0.437819
-0.016029 0.026231 0.083095 -0.957687 -0.185953 0.219675
0.034888 0.040565 -0.046272 0.275302 0.496425 -0.823268
-0.075974 -0.033547 0.086150 -0.786565 -0.375516 0.490207
0.005983 -0.070919 0.003676 0.308348 -0.949904 -0.051026
-0.066823 0.011917 -0.040116 -0.906571 0.417279 -0.063303
-0.008260 -0.073436 -0.006113 0.088923 -0.995066 -0.044001
0.008463 -0.065599 -0.081500 0.385182 -0.921689 -0.046094
-0.017349 -0.069140 -0.099076 -0.060232 -0.996560 -0.056924
0.016915 -0.052585 0.088332 -0.296534 0.404270 0.865236
0.055478 0.062784 0.032702 -0.899355 -0.437200 -0.004185
-0.065521 -0.046029 0.076734 -0.555362 -0.820146 -0.137598
0.046295 -0.032730 0.034712 0.946102 -0.321680 -0.037585
0.007847 0.008147 0.084707 0.875335 -0.470575 0.111122
-0.071235 -0.018556 -0.057062 -0.996316 -0.072538 -0.045742
-0.073511 -0.045014 0.083597 -0.818371 0.028065 0.574005
0.046408 -0.001634 -0.002475 0.978203 0.197636 -0.063712
0.059146 0.043396 0.038855 0.916546 -0.399847 0.008178
-0.070751 -0.039084 0.055423 -0.908426 -0.417798 -0.014395
-0.013187 -0.067664 -0.130391 0.012773 -0.998760 -0.048113
0.007179 0.047361 0.084720 -0.328856 -0.906218 0.265749
-0.064143 -0.031010 0.088345 -0.177726 -0.057849 0.982378
0.017025 0.006690 -0.144581 -0.082759 -0.033154 -0.996018
0.037527 0.018398 -0.014014 0.832939 0.550342 -0.057768
0.010390 -0.000463 0.071599 -0.185097 -0.180537 0.965995
-0.069647 0.017535 0.083038 0.252465 -0.069015 0.965142
-0.060783 0.018198 -0.080174 -0.834027 0.548765 -0.057054
0.003045 0.050631 0.087389 0.160556 0.462603 0.871906
-0.011043 -0.073288 -0.013318 0.036783 -0.998227 -0.046790
0.057499 0.056645 0.058467 -0.971855 0.155707 -0.176786
0.027318 -0.058770 0.004072 0.659345 -0.750193 -0.049752
0.013995 -0.070664 0.069828 0.420125 -0.901006 -0.108088
-0.015640 -0.017894 0.095492 -0.022930 0.012878 0.999654
0.057248 0.038183 0.076009 0.776926 -0.543266 0.318193
-0.052295 -0.057131 -0.045122 -0.664159 -0.746304 -0.043851
-0.066715 0.015713 0.085454 -0.443097 0.234281 0.865319
0.032556 0.009635 0.087920 -0.163406 -0.062656 0.984567
-0.013188 0.051947 0.087368 0.030071 -0.423135 0.905568
0.008300 -0.065353 -0.087588 0.382605 -0.922710 -0.047103
-0.025478 -0.072285 -0.009893 -0.194464 -0.979856 -0.045444
-0.062452 0.030762 0.076257 -0.744021 0.655843 -0.127682
0.054886 0.049469 0.028951 0.945591 0.325324 -0.004711
0.067510 0.051055 0.006910 0.622988 -0.782203 -0.006637
0.006565 0.007364 -0.144107 -0.037927 -0.038934 -0.998522
-0.077879 -0.013025 0.087800 0.766505 0.033626 0.641357
0.021404 -0.062111 -0.017185 0.572346 -0.818770 -0.045117
-0.016582 -0.072218 -0.035209 -0.054005 -0.997399 -0.047739
0.036065 0.042153 -0.061892 0.275505 0.517719 -0.809978
-0.035315 0.046962 0.082284 0.268034 -0.438333 0.857917
0.037720 0.020894 0.010727 0.826004 0.561158 -0.053089
-0.011607 0.040178 -0.126447 0.025627 0.998602 -0.046232
-0.020785 0.047803 0.011593 -0.103518 0.992584 -0.063728
-0.033772 0.039616 -0.073976 -0.343736 0.937331 -0.057053
-0.009187 -0.019984 0.095417 0.250940 -0.098638 0.962964
0.043154 0.010349 0.005734 0.918000 0.391708 -0.061972
-0.015325 0.049298 0.030572 -0.012845 0.998308 -0.056709
-0.008011 -0.031790 0.089504 0.946946 -0.248888 0.203341
0.019708 -0.069652 0.085571 0.502625 -0.864503 0.001688
-0.003784 -0.071244 -0.040204 0.173665 -0.983565 -0.049401
-0.017085 0.002029 0.094226 -0.516673 0.172748 0.838575
-0.037843 0.035579 -0.109148 -0.433734 0.898698 -0.064940
-0.034402 -0.072187 0.083570 0.160679 0.249916 0.954843
0.055229 0.041661 -0.006079 -0.229396 -0.970317 0.076571
0.053567 0.042485 0.038543 -0.272449 -0.954280 0.122965
-0.070618 0.002649 -0.032474 -0.961340 0.270860 -0.049608
-0.060902 -0.006239 -0.144147 -0.457467 0.084223 -0.885229
0.046621 0.048240 0.074755 -0.616088 0.152177 -0.772837
-0.039092 0.033669 -0.129903 -0.474563 0.878512 -0.054837
0.055170 0.053853 0.046248 -0.657247 0.753674 -0.001625
-0.041331 -0.060609 -0.122289 -0.512285 -0.857430 -0.048769
0.002375 -0.058819 0.087378 -0.185207 0.516929 0.835753
-0.038942 -0.051117 0.090620 -0.139257 -0.215447 0.966535
-0.046899 -0.066285 0.060973 -0.401878 -0.914278 -0.050896
-0.013163 0.050754 0.082571 -0.036528 -0.692871 0.720135
0.023689 -0.054704 -0.107179 0.674038 -0.736527 -0.056578
0.026422 -0.058157 -0.017894 0.655749 -0.753631 -0.045100
0.046761 0.059565 0.071367 -0.042849 0.822359 0.567353
0.026463 0.004905 -0.145422 0.391286 0.173732 -0.903722
-0.051309 0.041044 0.087960 -0.022167 0.067224 0.997492
-0.010346 0.049541 0.037292 0.057852 0.997243 -0.046465
0.051279 0.060136 -0.032162 0.121823 0.969387 -0.213184
-0.000891 -0.061586 -0.143200 0.165447 -0.555102 -0.815162
-0.020127 0.028680 -0.146663 -0.053688 0.184110 -0.981438
0.001556 -0.067014 -0.101121 0.260668 -0.964192 -0.048843
-0.011607 0.040178 -0.126447 0.025627 0.998602 -0.046232
0.026758 0.028832 -0.040160 0.656929 0.748141 0.093429
0.053635 0.050141 -0.043963 0.602188 0.586298 -0.541871
0.022222 -0.060234 -0.040819 0.588972 -0.806219 -0.055887
-0.067134 -0.031334 -0.081586 -0.949072 -0.310752 -0.051929
0.057558 0.041911 0.036128 0.372566 -0.923452 0.091818
0.055576 0.047222 0.016408 0.797918 0.599369 -0.063904
-0.043037 -0.060599 -0.105256 -0.535699 -0.842952 -0.049585
-0.048266 0.034130 -0.041685 -0.577504 0.813855 -0.064257
0.038918 0.022800 0.046450 0.813026 0.581110 -0.036043
-0.063876 0.020251 -0.013359 -0.830390 0.553936 -0.060059
-0.022633 0.043510 -0.056677 -0.151731 0.986922 -0.054426
-0.075181 -0.035228 0.084862 -0.922728 -0.385136 -0.015619
-0.068317 0.022840 0.075787 -0.843261 0.522442 -0.126356
0.055012 0.065696 0.027085 -0.715575 0.698491 0.007873
0.019387 -0.025998 -0.144142 -0.086029 0.023226 -0.996022
-0.059204 0.016640 -0.115130 -0.833412 0.548721 -0.065809
0.044784 -0.018551 -0.052235 0.996693 -0.064768 -0.049074
0.008218 -0.061949 -0.139269 0.376869 -0.831806 -0.407514
0.051271 0.043655 -0.025408 0.783730 0.550810 -0.287010
-0.073214 -0.070412 0.068951 -0.499692 -0.404332 0.766044
-0.013405 -0.072981 -0.020066 -0.004884 -0.998902 -0.046599
-0.058976 -0.052952 0.080437 -0.643706 -0.551815 -0.530229
0.023222 -0.057318 -0.075046 0.627491 -0.777026 -0.049862
0.042845 0.048361 -0.054599 0.394894 0.580148 -0.712381
0.064842 0.051298 0.008685 -0.461866 -0.886488 0.028602
-0.002068 -0.076538 0.077445 0.175929 -0.978792 -0.104956
0.022276 -0.045810 -0.143939 0.313710 -0.255292 -0.914556
-0.044017 -0.063051 -0.049627 -0.530383 -0.846532 -0.045580
-0.065831 0.012718 -0.049709 -0.897940 0.436887 -0.053230
-0.035925 -0.052263 0.090756 -0.171662 -0.196804 0.965298
-0.006803 0.048247 0.021061 0.119404 0.990811 -0.063531
-0.069044 0.020881 0.087672 0.533880 -0.410324 0.739328
0.028601 -0.020364 -0.146698 -0.018715 -0.023899 -0.999539
-0.046756 -0.066168 0.083260 -0.467318 -0.699627 0.540496
0.056493 0.052112 0.042436 0.718613 -0.695120 -0.020089
0.046695 0.056071 0.020695 -0.308309 0.950440 -0.040114
0.023724 0.002523 -0.145270 -0.239469 -0.148882 -0.959421
-0.043261 0.004358 0.075468 0.475829 -0.273342 0.835985
-0.038456 0.012961 0.076565 0.412107 -0.421289 0.807888
-0.022855 -0.063453 -0.142381 -0.130928 -0.640926 -0.756354
-0.036697 0.035166 -0.125748 -0.430335 0.901295 -0.049782
0.039222 -0.006647 -0.137213 0.964085 0.113270 -0.240227
0.057421 0.042058 0.055772 0.952688 0.060600 0.297847
0.035571 0.024320 0.014572 0.785524 0.615628 -0.062876
-0.074458 -0.032976 0.073339 -0.937423 -0.329873 -0.111456
-0.025259 0.049227 0.051439 -0.181746 0.982745 -0.034369
-0.012548 0.022325 -0.144437 0.022013 -0.127623 -0.991578
0.039374 -0.031458 -0.100656 0.950231 -0.306627 -0.055143
-0.000223 0.038333 -0.130579 0.254078 0.965244 -0.061222
-0.005407 -0.023185 0.088743 0.938346 -0.293473 0.182702
0.005873 -0.067110 -0.071840 0.335908 -0.940678 -0.047856
-0.032751 0.036956 -0.122456 -0.341540 0.938650 -0.047826
-0.060642 0.017565 -0.087853 -0.842800 0.534456 -0.063608
-0.019688 0.040833 -0.106557 -0.071720 0.995189 -0.066747
0.046991 0.007661 0.054548 0.946888 0.319220 -0.038746
0.029815 0.015552 -0.139600 0.735809 0.520674 -0.432994
-0.067002 -0.008961 -0.133292 -0.993717 0.084296 -0.073629
-0.067393 -0.032851 -0.067403 -0.938384 -0.341747 -0.051421
-0.032354 -0.062608 0.088551 -0.120626 -0.290597 0.949211
-0.010792 0.051821 0.072361 0.053873 0.990566 -0.126004
0.054917 0.062239 0.048961 -0.843236 -0.536114 -0.039181
0.005351 0.045672 0.022206 0.303684 0.950541 -0.065173
0.007478 0.041378 -0.031882 0.353950 0.933163 -0.062668
-0.002534 0.000036 0.094939 0.191354 -0.002534 0.981518
-0.045055 -0.066509 0.026139 -0.511254 -0.858184 -0.046250
0.043649 -0.022168 -0.064775 0.987099 -0.148952 -0.058734
-0.065114 0.011664 -0.069913 -0.902498 0.427074 -0.055720
0.026052 0.031871 -0.011567 0.650791 0.756560 -0.063935
-0.032241 -0.046745 0.092270 -0.100191 -0.157847 0.982368
-0.016029 0.026231 0.083095 -0.957687 -0.185953 0.219675
0.050481 -0.028608 0.087808 0.118193 -0.090867 0.988824
-0.069059 -0.022516 -0.083621 -0.983722 -0.169573 -0.059458
0.039160 -0.030726 -0.107616 0.947476 -0.313789 -0.061860
0.039577 -0.031576 -0.096719 0.951190 -0.302197 -0.062561
0.039734 0.027015 0.086883 0.571452 0.512707 0.640761
-0.073078 -0.033149 0.083774 0.167226 0.027449 0.985536
0.005705 -0.026693 0.071077 -0.199059 0.151709 0.968174
-0.001596 0.048834 0.047973 0.194184 0.980387 -0.033679
0.039352 0.038799 0.072574 -0.709244 0.703966 -0.037489
0.048913 0.056996 -0.036887 -0.862832 -0.258346 0.434487
0.024492 -0.000088 -0.144792 -0.356890 -0.160563 -0.920244
-0.057200 -0.016913 -0.146043 -0.358203 -0.005396 -0.933628
0.028691 0.035487 0.064790 0.440426 0.721166 0.534738
-0.053953 0.005500 0.083165 0.561628 -0.264613 0.783935
-0.070833 0.018294 0.074932 -0.880111 0.458754 -0.122273
-0.075449 -0.024909 0.058882 -0.979869 -0.196620 -0.034605
-0.022581 -0.068513 -0.100083 -0.149524 -0.987360 -0.052564
0.054526 0.062612 -0.013648 0.338652 0.935453 -0.101204
-0.050410 -0.055405 -0.099321 -0.669215 -0.741340 -0.050661
-0.001469 -0.014562 0.080119 0.936433 -0.335530 0.102534
0.043181 0.048469 -0.027313 -0.870048 -0.391953 0.298979
0.007467 0.035898 -0.125757 0.387221 0.921170 -0.038797
0.050884 0.035801 0.064254 0.242408 -0.658130 -0.712814
0.035632 0.009042 -0.123366 0.907264 0.418332 -0.043253
-0.066603 -0.026120 -0.117668 -0.973914 -0.218784 -0.060206
0.044169 -0.038964 0.049111 0.902837 -0.429552 -0.019245
0.038564 -0.015058 -0.140262 0.845653 -0.017435 -0.533449
0.023021 0.028359 -0.085175 0.638720 0.768294 -0.041964
0.056554 0.060936 -0.013403 0.653954 0.742882 -0.143077
0.049631 0.053378 0.015084 0.669767 0.741055 -0.047426
0.051730 0.061198 0.062074 -0.795591 -0.423549 -0.433176
0.068869 0.053052 0.040468 0.942523 0.331296 0.043519
-0.009835 0.049237 0.032360 0.070353 0.995944 -0.056086
-0.062721 -0.059996 0.055151 -0.454684 -0.477177 -0.752040
-0.065281 -0.021981 -0.140258 -0.860901 -0.128548 -0.492265
0.030688 -0.025606 0.084676 -0.603610 0.195020 0.773060
0.062240 0.059273 0.011564 0.708644 0.702299 -0.067821
-0.061828 -0.027606 0.088454 0.274674 0.092801 0.957049
0.044394 0.000913 -0.025253 0.966101 0.250451 -0.062631
0.065984 0.051355 0.028800 -0.431510 -0.900782 0.048902
0.046022 0.035546 -0.039452 -0.409777 -0.694562 0.591326
-0.029079 -0.062805 0.088792 -0.083452 -0.308514 0.947552
-0.013419 -0.013647 0.095419 -0.005226 0.023700 0.999705
0.061011 0.045999 -0.039214 0.910408 0.115740 -0.397193
-0.018732 0.013933 0.075393 -0.936955 0.124226 0.326625
-0.025183 -0.068465 -0.091756 -0.190124 -0.980489 -0.049938
-0.072641 -0.037545 0.073240 -0.919713 -0.376484 -0.111302
0.048711 0.007155 0.072094 0.943244 0.310429 -0.118004
-0.062818 -0.006753 0.087574 0.461514 -0.025484 0.886767
-0.056777 -0.029723 0.085404 0.563529 0.224700 0.794950
0.004608 -0.070977 -0.004299 0.294378 -0.954641 -0.044751
-0.016739 -0.078570 0.088056 -0.017535 -0.930267 0.366463
0.024747 0.024714 -0.118281 0.691113 0.720298 -0.059442
0.004086 0.048549 0.066735 0.285909 0.951143 -0.116548
0.045924 0.052876 -0.013328 0.395824 0.876341 -0.274497
0.010765 0.043649 0.022004 0.380650 0.922501 -0.064015
0.050725 -0.012672 0.085616 -0.954186 0.008550 0.299093
-0.054761 0.020612 -0.135015 -0.760520 0.636320 -0.129254
-0.061475 -0.050590 0.058181 -0.720366 -0.689189 0.078048
0.045754 0.029817 -0.061551 0.716236 -0.695465 -0.057746
0.044462 0.052847 -0.014980 -0.627043 0.778910 -0.010780
-0.036697 0.035166 -0.125748 -0.430335 0.901295 -0.049782
0.052771 0.036729 -0.053506 0.376452 -0.875428 0.303165
0.037510 -0.049794 0.038944 0.804153 -0.593868 -0.025666
-0.013598 0.029456 -0.146401 -0.028976 0.205587 -0.978210
0.042502 -0.001885 -0.069512 0.973491 0.221829 -0.055738
0.001721 -0.066587 -0.107847 0.272845 -0.960638 -0.052250
-0.052342 -0.060377 0.061990 -0.911843 0.229394 0.340471
0.050266 -0.008891 0.057884 0.997838 0.048456 -0.044398
-0.060354 0.017587 -0.091669 -0.838252 0.542367 -0.056319
-0.064229 -0.003529 -0.141128 -0.778688 0.170174 -0.603892
