-0.012705 -0.031077 -0.022670 -0.021952 -0.055131 0.998238
-0.047721 0.039757 -0.003933 -0.652067 0.547658 -0.524289
-0.040892 -0.050552 -0.001019 -0.550922 -0.684775 -0.477041
-0.060827 0.025870 0.004857 0.825120 -0.359502 0.435816
0.051265 -0.036139 -0.003093 -0.703078 0.468849 0.534661
-0.059934 0.001588 -0.007831 -0.801031 0.049842 -0.596544
0.016293 -0.034578 -0.023170 0.046300 -0.031493 0.998431
0.009025 -0.064191 -0.001945 0.097322 -0.858078 -0.504212
0.011473 -0.055204 -0.013187 0.134459 -0.706373 -0.694952
-0.007943 -0.029900 -0.022683 -0.003458 -0.049695 0.998758
0.022515 0.037580 -0.024089 0.191703 0.392108 -0.899723
-0.031210 -0.061880 0.011778 0.474896 0.807601 0.349649
0.044652 -0.024866 -0.018299 0.608175 -0.316560 -0.727951
0.025081 -0.050890 -0.013031 0.337306 -0.662152 -0.669163
-0.041050 0.041933 -0.007199 0.564347 -0.576369 0.591026
-0.019083 -0.028654 -0.022857 -0.036442 -0.052960 0.997931
0.049762 -0.015589 -0.017380 0.647539 -0.181642 -0.740068
-0.004158 0.046988 -0.019523 0.081074 -0.697483 0.712000
0.021483 0.046095 -0.016291 -0.264651 -0.621995 0.736941
-0.069731 0.011332 0.016702 0.959206 -0.146786 0.241613
-0.059357 0.014347 -0.006023 -0.797244 0.207315 -0.566942
-0.045504 0.049565 0.006192 -0.608197 0.674602 -0.418341
-0.053691 -0.013750 -0.013572 -0.714753 -0.159665 -0.680907
0.013874 -0.044977 -0.022770 0.242372 -0.589339 -0.770672
-0.036095 0.069937 0.028354 -0.345981 0.724155 0.596571
-0.064962 0.027142 0.016664 0.887600 -0.393231 0.239865
0.016184 -0.065082 0.004857 -0.233549 0.874192 0.425728
-0.058583 -0.036645 0.009904 0.792637 0.487517 0.366134
0.075960 0.008098 0.027933 0.053098 -0.002169 -0.998587
0.061519 0.034288 0.012269 0.825429 0.479117 -0.298520
0.038965 -0.031139 -0.018420 -0.552817 0.443418 0.705531
0.042728 0.049097 0.002964 -0.561269 -0.683734 0.466353
0.027459 -0.074951 0.026874 0.005711 0.018875 -0.999806
-0.043984 0.056511 0.025226 0.560290 -0.702954 0.438099
0.023237 0.058877 -0.000250 -0.303848 -0.826704 0.473537
0.046556 -0.056755 0.021217 0.620847 -0.766523 -0.164288
-0.033244 -0.013804 -0.022856 -0.065052 -0.044170 0.996904
0.029081 0.029552 -0.024420 0.015230 0.021067 -0.999662
-0.034148 0.062824 0.024257 0.458152 -0.819689 0.343813
-0.070593 0.017037 0.022587 -0.947432 0.234368 -0.217819
0.016390 -0.002416 -0.022374 -0.011910 0.000848 0.999929
0.020660 -0.000747 -0.022408 0.037992 -0.016633 0.999140
0.053276 0.002881 -0.014676 -0.707446 -0.040363 0.705614
0.045428 0.012048 -0.020768 -0.664376 -0.173184 0.727057
0.043147 0.060016 0.026223 0.331829 0.535906 -0.776334
0.003698 -0.065806 0.002177 -0.034097 0.903806 0.426583
-0.022387 0.038654 -0.023235 -0.303893 0.518213 -0.799440
-0.001595 -0.052648 -0.015897 0.016072 0.685454 0.727938
-0.001018 -0.001232 -0.022065 -0.006548 0.003408 0.999973
-0.060414 -0.012725 -0.004226 0.819584 0.165533 0.548527
-0.034814 0.045170 -0.009188 0.470179 -0.627164 0.620965
-0.010689 -0.069285 0.012991 0.117692 0.949143 0.292022
-0.007279 -0.052742 -0.016279 -0.129920 -0.673153 -0.728001
-0.060248 0.024171 0.000645 -0.827456 0.329999 -0.454331
0.067983 -0.025541 0.018143 0.921814 -0.332208 -0.199742
0.077953 0.016308 0.026213 0.393733 0.066277 -0.916832
-0.028307 -0.062871 0.006783 -0.380281 -0.832233 -0.403453
-0.044680 0.034850 -0.011256 -0.595017 0.484318 -0.641397
0.043508 0.057891 0.023398 0.581429 0.753681 -0.306439
-0.007846 0.022900 -0.023406 -0.003638 -0.028452 -0.999589
-0.074408 -0.017823 0.028041 -0.040308 -0.048017 -0.998033
0.002368 0.060093 -0.006847 0.027595 0.817590 -0.575139
-0.052770 0.045398 0.015185 0.716072 -0.644877 0.267160
0.021333 -0.069199 0.015500 0.290084 -0.923702 -0.250251
0.056274 -0.043197 0.015045 -0.769832 0.580314 0.265695
0.057652 -0.043440 0.021402 -0.780885 0.595255 0.189449
0.027584 -0.066185 0.016881 -0.405073 0.892903 0.196570
-0.046850 0.014567 -0.018910 -0.643060 0.214709 -0.735101
0.039531 0.056552 0.009465 0.524988 0.769709 -0.363231
0.039455 -0.010149 -0.024410 -0.052736 0.002148 -0.998606
0.036835 0.034011 -0.018386 0.500476 0.459516 -0.733736
-0.053377 -0.045922 0.014290 0.738266 0.626502 0.249918
-0.077253 -0.012258 0.029691 -0.155688 -0.034896 0.987190
-0.014446 -0.017626 -0.023205 0.016932 0.032007 -0.999344
0.017381 -0.071535 0.026656 -0.190137 0.875884 0.443482
-0.053414 -0.006132 -0.014938 -0.684018 -0.102043 -0.722293
0.054987 -0.055149 0.028263 -0.160182 0.150477 -0.975550
0.044056 -0.037929 -0.009708 -0.619811 0.503113 0.602256
0.047501 0.033632 -0.009908 0.623658 0.454078 -0.636289
-0.046884 0.022279 -0.015250 0.611501 -0.333194 0.717669
-0.038381 0.042036 -0.010966 -0.508291 0.579235 -0.637281
-0.008219 0.007531 -0.023045 -0.007557 -0.012030 -0.999899
-0.043109 0.039360 -0.007545 0.573432 -0.560645 0.597371
0.015362 0.050637 -0.015533 0.171903 0.680243 -0.712544
0.002275 -0.067060 0.002474 0.026437 -0.903841 -0.427052
0.072827 0.008990 0.026856 -0.794540 -0.103423 0.598340
-0.021250 -0.065133 0.008029 0.290163 0.862248 0.415131
-0.034812 0.059504 0.013433 0.469255 -0.838640 0.276554
-0.023642 0.053971 -0.008262 -0.303547 0.725282 -0.617921
-0.055351 -0.059566 0.027132 -0.639079 -0.411914 -0.649542
0.000672 0.069947 0.013228 0.004820 0.959471 -0.281767
-0.067978 0.020489 0.018955 0.931497 -0.297078 0.209899
0.071148 0.016064 0.025821 -0.859495 -0.205105 0.468188
-0.066551 0.005419 0.006604 0.894081 -0.106647 0.435024
-0.005653 0.012594 -0.022141 0.024837 0.036554 0.999023
0.048356 0.045057 0.004939 -0.648176 -0.584348 0.488268
-0.020503 0.069156 0.023791 -0.257479 0.893681 -0.367477
-0.010745 0.027117 -0.022698 -0.004533 0.016942 0.999846
-0.069135 0.039671 0.027232 -0.805982 0.577465 -0.130102
0.054772 -0.031686 -0.002487 -0.754968 0.422455 0.501553
0.012403 -0.064907 0.002200 -0.162049 0.890287 0.425594
-0.015405 0.069350 0.022717 0.206493 -0.954547 0.214942
-0.069344 0.017725 0.017534 -0.941895 0.256601 -0.216769
0.045079 -0.016301 -0.021468 0.711169 -0.222821 -0.666776
0.037412 0.045022 -0.009395 0.474967 0.604062 -0.639934
0.048303 0.048117 0.007093 0.637857 0.651711 -0.410380
-0.037563 0.019940 -0.023393 0.067018 -0.120582 0.990439
-0.046044 0.060047 0.027539 0.046180 -0.068947 -0.996551
0.003409 -0.045841 -0.023671 0.007289 -0.408274 -0.912830
-0.036503 -0.025045 -0.023121 0.290792 0.206383 0.934262
-0.013910 0.068636 0.013658 -0.192913 0.941088 -0.277737
0.051255 0.050512 0.020000 0.691293 0.706656 -0.150836
0.014392 0.009090 -0.023220 -0.004409 -0.018327 -0.999822
0.063201 0.034131 0.017659 0.851226 0.483467 -0.204142
0.016863 -0.063585 -0.000225 0.227023 -0.850782 -0.473952
0.051315 0.052991 0.025984 0.550755 0.547833 -0.629721
-0.051103 0.014035 -0.014366 0.682473 -0.193189 0.704917
0.048908 -0.053157 0.020985 -0.716317 0.654020 0.243205
-0.021256 -0.012469 -0.023285 0.029277 0.027027 -0.999206
0.018553 -0.025403 -0.022884 0.024979 -0.016252 0.999556
-0.015634 -0.042512 -0.022994 0.164687 0.454690 0.875292
-0.064077 -0.048494 0.029285 -0.623083 -0.441986 0.645303
-0.036647 0.060074 0.014723 -0.495981 0.827229 -0.264000
-0.073172 -0.002943 0.024003 -0.946188 -0.069001 -0.316177
0.019646 0.008412 -0.022268 0.006159 0.028429 0.999577
-0.003429 -0.081407 0.028738 -0.005205 -0.990156 0.139872
0.024579 -0.071461 0.028882 -0.208751 0.580897 0.786754
0.048403 0.026772 -0.013557 0.636027 0.366517 -0.679069
-0.005596 0.042320 -0.023542 0.020899 -0.296043 0.954946
-0.043860 0.044852 -0.000675 0.606519 -0.634063 0.479686
-0.023780 0.074674 0.025525 -0.216854 0.423265 -0.879671
0.004392 0.046440 -0.021133 0.065518 0.723948 -0.686736
-0.028187 -0.024301 -0.023045 -0.072105 -0.045451 0.996361
-0.006337 0.004424 -0.023020 -0.011137 -0.009624 -0.999892
0.049210 0.051892 0.022439 -0.684503 -0.695152 0.219588
0.014063 -0.060010 -0.005363 -0.181044 0.807664 0.561161
-0.044234 -0.019013 -0.020573 -0.691808 -0.283196 -0.664230
-0.001396 0.023098 -0.022466 0.009346 0.017955 0.999795
0.001246 -0.073763 0.021640 0.025154 -0.985463 -0.168016
-0.019581 0.076519 0.028026 -0.231271 0.906907 0.352184
0.001001 0.065155 0.004300 -0.041085 -0.880045 0.473109
0.059851 0.012230 -0.005428 -0.820706 -0.176192 0.543505
0.067568 0.023096 0.019172 -0.926949 -0.323891 0.189370
-0.043334 -0.060089 0.027631 0.470665 0.616191 0.631492
0.030320 0.041023 -0.017346 0.383904 0.544419 -0.745805
0.064824 -0.020596 0.007025 -0.855684 0.295818 0.424613
0.022366 -0.037730 -0.024335 0.087454 -0.163988 -0.982578
0.058976 0.023540 -0.001082 -0.802495 -0.329545 0.497396
0.039621 -0.017101 -0.024403 0.074451 -0.127755 -0.989008
-0.003278 -0.038635 -0.023166 -0.027995 -0.075975 0.996717
0.010966 -0.071506 0.020683 -0.151952 0.967332 0.202927
-0.011062 -0.066134 0.004682 0.169650 0.911987 0.373495
0.059936 0.038293 0.015031 0.809045 0.532020 -0.249801
0.051840 -0.050734 0.023654 -0.732216 0.642810 0.225067
-0.059109 -0.037479 0.012606 0.804634 0.504011 0.313907
-0.032973 -0.022600 -0.024166 0.040708 0.036480 -0.998505
-0.049358 0.045799 0.006325 -0.665484 0.620344 -0.415095
0.053055 -0.045852 0.009030 0.698851 -0.602307 -0.385788
0.047248 0.052470 0.017511 -0.662405 -0.722053 0.199647
0.044880 -0.038030 -0.008690 -0.630438 0.497729 0.595662
0.042741 -0.001834 -0.023560 -0.140881 -0.008069 0.989994
-0.015896 0.028641 -0.022761 -0.017709 0.035853 0.999200
-0.007927 0.074408 0.027185 -0.063067 0.118917 -0.990899
0.000146 -0.015125 -0.022140 0.020904 -0.043113 0.998851
0.032484 0.023693 -0.023386 0.066862 0.051430 0.996436
0.035666 -0.066969 0.027950 0.255018 -0.517482 -0.816810
-0.049540 0.049167 0.012303 -0.670682 0.672903 -0.312069
-0.015165 -0.045118 -0.020742 0.225046 0.677501 0.700247
-0.056651 0.028350 -0.002129 -0.766008 0.406795 -0.497745
0.047762 -0.042226 -0.001369 -0.659393 0.566724 0.493988
-0.062093 0.022419 0.002877 -0.845534 0.314972 -0.431120
-0.037126 -0.064154 0.025792 -0.459544 -0.772675 -0.437941
-0.010015 -0.014833 -0.023155 0.005105 0.019452 -0.999798
0.047307 -0.028532 -0.014475 0.619195 -0.374257 -0.690311
0.057883 0.038109 0.012187 -0.777748 -0.546809 0.310013
0.011900 0.069040 0.017526 -0.190514 -0.962636 0.192450
-0.078933 0.012915 0.026925 -0.935561 0.097606 -0.339410
-0.012400 -0.073338 0.025426 -0.143379 -0.917847 -0.370135
-0.066890 -0.021543 0.011065 -0.888915 -0.283134 -0.360090
-0.065991 0.017702 0.007675 -0.880009 0.228921 -0.416147
0.018701 0.068825 0.022969 -0.254657 -0.935276 0.245780
0.018808 -0.033940 -0.024213 -0.027409 0.043373 -0.998683
0.003400 0.054143 -0.012641 -0.072212 -0.730564 0.679015
-0.016244 0.058783 -0.003478 0.202549 -0.805809 0.556458
0.028271 -0.026030 -0.024185 -0.034272 0.043192 -0.998479
0.061239 -0.018074 -0.003125 0.825070 -0.230202 -0.516009
-0.048414 0.016922 -0.015881 0.645590 -0.237521 0.725808
0.069801 -0.020959 0.020279 0.949848 -0.259200 -0.174939
0.061687 0.009960 -0.004639 0.829625 0.148838 -0.538117
0.023770 0.070345 0.027719 -0.139131 -0.475403 0.868697
-0.026871 -0.026678 -0.024083 0.058427 0.048071 -0.997134
0.021423 -0.067370 0.013250 -0.261416 0.911094 0.318699
-0.038578 0.012290 -0.024072 0.051494 -0.018102 -0.998509
-0.063872 -0.018577 0.005398 0.869891 0.248807 0.425892
-0.052271 0.005822 -0.016118 -0.686994 0.083149 -0.721891
0.009248 -0.066759 0.003067 0.116089 -0.891667 -0.437554
-0.048749 0.062784 0.026993 -0.628766 0.766802 -0.129102
0.067527 0.041915 0.025708 0.478371 0.162060 -0.863075
0.062565 0.017785 0.001932 -0.840183 -0.256994 0.477542
-0.026414 0.049929 -0.010038 0.378555 -0.680644 0.627232
-0.052753 -0.049067 0.015887 -0.714653 -0.655935 -0.242941
-0.034148 0.062824 0.024257 0.458152 -0.819689 0.343813
-0.011863 -0.018947 -0.023265 0.011607 0.031689 -0.999430
0.055022 0.052337 0.028470 -0.216812 -0.210921 0.953155
0.020455 -0.038883 -0.023340 -0.125617 0.264468 0.956178
-0.016896 -0.071791 0.021826 -0.229949 -0.959402 -0.163316
-0.010689 -0.069285 0.012991 0.117692 0.949143 0.292022
0.000383 -0.072400 0.015632 0.012872 -0.964654 -0.263207
-0.021787 -0.004752 -0.023106 0.022394 0.030244 -0.999292
-0.039211 0.059618 0.019442 -0.540287 0.823099 -0.174921
-0.008830 0.062695 0.000505 0.105818 -0.859312 0.500385
-0.025380 0.030711 -0.023390 -0.035860 0.076774 0.996403
0.003398 0.076233 0.026518 -0.152513 -0.177441 -0.972242
-0.007385 -0.066442 0.004078 0.087368 0.918743 0.385069
-0.020236 0.006707 -0.022004 -0.016127 0.017438 0.999718
-0.002055 -0.066724 0.004808 -0.007607 0.890350 0.455213
0.042711 -0.013363 -0.023032 -0.411090 0.139668 0.900832
-0.002535 -0.079917 0.030414 0.015663 -0.357621 0.933736
0.055442 0.028047 -0.003263 -0.759202 -0.398900 0.514288
0.033490 0.031638 -0.022549 0.502335 0.460839 -0.731633
0.017246 0.053470 -0.010595 -0.233826 -0.744053 0.625868
0.068786 -0.013060 0.009482 0.915949 -0.177666 -0.359822
0.021022 0.032754 -0.024151 -0.045433 -0.072707 -0.996318
0.027704 0.066283 0.020759 0.375558 0.909994 -0.175689
-0.016212 -0.056993 -0.008486 0.225658 0.758610 0.611220
-0.002034 -0.040060 -0.024265 -0.007625 0.036214 -0.999315
-0.055575 -0.045906 0.021488 0.761955 0.628632 0.155711
-0.019453 0.057432 -0.004182 0.264453 -0.806515 0.528769
0.071237 -0.018416 0.023620 0.936315 -0.269700 -0.224890
-0.052718 0.024464 -0.009768 -0.704002 0.339072 -0.624029
0.048908 -0.053157 0.020985 -0.716317 0.654020 0.243205
0.024988 0.009653 -0.023370 -0.014936 -0.019550 -0.999697
-0.042389 -0.015464 -0.022398 0.558625 0.131520 0.818926
0.013750 0.003457 -0.022199 0.013865 0.011444 0.999838
-0.037836 0.018063 -0.024264 -0.041172 -0.002472 -0.999149
-0.005394 0.007839 -0.023115 -0.016906 -0.022121 -0.999612
-0.034105 0.032244 -0.019787 0.523246 -0.485417 0.700417
0.066980 0.005926 0.006128 -0.887312 -0.081255 0.453955
-0.062567 0.047073 0.029174 -0.310222 0.211860 0.926757
-0.042717 0.039634 -0.009299 -0.576790 0.520915 -0.629254
0.008576 0.047516 -0.018580 -0.105254 -0.684340 0.721526
-0.012706 -0.070340 0.017730 0.270292 0.956432 0.110364
0.022882 0.064458 0.008362 0.304682 0.873123 -0.380559
-0.035976 -0.041388 -0.014772 -0.472439 -0.529186 -0.704815
-0.018182 0.009031 -0.022115 -0.005943 0.026665 0.999627
-0.032410 0.065571 0.027261 0.281055 -0.627174 0.726403
0.061964 0.037927 0.025760 -0.722382 -0.473709 0.503751
-0.065991 0.017702 0.007675 -0.880009 0.228921 -0.416147
0.038707 0.058509 0.016019 -0.521944 -0.824868 0.217180
-0.021805 0.063277 0.005522 -0.291261 0.855896 -0.427328
0.032033 -0.029803 -0.024388 0.129031 -0.088963 -0.987642
-0.003743 0.018927 -0.022563 0.031607 0.026240 0.999156
0.066131 -0.028957 0.021192 -0.906519 0.376231 0.191502
-0.002338 0.074705 0.028013 0.019959 -0.488242 0.872480
0.019926 0.054446 -0.009625 0.262828 0.727099 -0.634231
-0.044287 -0.033392 -0.013792 -0.593214 -0.436387 -0.676509
0.000651 -0.079099 0.030468 -0.047416 -0.153918 0.986945
-0.014851 0.015577 -0.023169 -0.003919 -0.026632 -0.999638
0.004911 0.044324 -0.023430 0.065352 0.573332 -0.816712
-0.001205 -0.077083 0.029873 -0.008545 0.373132 0.927739
0.049405 0.049702 0.015123 -0.648323 -0.712450 0.268498
0.019664 0.049642 -0.015040 0.266891 0.662311 -0.700081
-0.057833 0.025510 -0.002362 -0.789832 0.345615 -0.506671
-0.025511 -0.059722 0.000579 0.347825 0.804363 0.481682
0.075187 0.022193 0.029459 0.213197 0.109596 0.970843
-0.038783 -0.045085 -0.009051 -0.521339 -0.591466 -0.615122
0.019748 -0.069570 0.020177 -0.265596 0.943843 0.196515
-0.050082 0.038229 -0.002406 -0.671862 0.538400 -0.508652
0.047248 0.052470 0.017511 -0.662405 -0.722053 0.199647
0.062784 -0.016239 -0.001216 0.853240 -0.212587 -0.476223
0.012102 -0.036450 -0.024163 -0.025792 0.059326 -0.997905
-0.057499 0.041710 0.020469 0.776018 -0.609121 0.163611
-0.011088 0.068539 0.014924 0.173855 -0.954805 0.241085
0.019290 -0.013592 -0.022513 0.042823 0.001907 0.999081
0.020967 -0.066568 0.010961 -0.287055 0.889679 0.355065
-0.022208 0.011676 -0.022104 -0.009299 0.011153 0.999895
-0.030677 -0.051148 -0.007697 0.408031 0.679157 0.610128
0.063539 -0.030004 0.009653 0.841028 -0.406141 -0.357381
-0.018089 0.074960 0.025889 -0.085264 0.119252 -0.989196
-0.035410 -0.063773 0.024921 0.493990 0.800572 0.339202
0.011491 -0.042057 -0.023272 -0.060107 0.159169 0.985420
-0.020375 -0.009665 -0.022240 -0.022675 -0.010988 0.999682
-0.062668 0.000028 -0.003637 -0.848460 0.021986 -0.528802
-0.000381 -0.068205 0.004878 -0.008026 -0.904056 -0.427338
-0.053076 -0.019002 -0.011228 0.715189 0.228661 0.660469
-0.057829 0.015218 -0.006354 0.788500 -0.182518 0.587329
0.036744 -0.030745 -0.020422 -0.549558 0.467485 0.692418
0.010171 0.007919 -0.022268 -0.010424 -0.000387 0.999946
-0.009982 0.033696 -0.022905 0.007898 0.053513 0.998536
0.052843 -0.023395 -0.009817 -0.720419 0.307092 0.621844
0.003068 0.023601 -0.023531 -0.009225 -0.024431 -0.999659
-0.048802 -0.045677 0.004815 0.667922 0.608309 0.428766
-0.057468 -0.034472 0.005267 0.789872 0.432997 0.434298
-0.035454 -0.062488 0.014504 -0.485552 -0.830274 -0.273649
0.033276 0.005353 -0.022880 0.064870 0.022417 0.997642
0.032447 0.062074 0.012462 0.430932 0.853754 -0.292236
-0.034646 -0.055414 0.001483 0.475363 0.755851 0.450243
-0.030488 0.064417 0.023640 0.419014 -0.865859 0.273341
-0.052907 -0.034634 -0.001915 0.734422 0.430871 0.524381
-0.066320 -0.027315 0.019364 0.899507 0.338273 0.276511
-0.028018 0.029176 -0.023425 -0.034264 0.014166 0.999312
-0.018980 -0.058867 -0.004844 0.254769 0.796089 0.548940
-0.065994 -0.020532 0.011134 0.897203 0.275022 0.345528
-0.037941 -0.061700 0.023132 0.539786 0.828877 0.146946
0.018264 0.063016 0.004458 -0.234950 -0.862233 0.448723
-0.039142 0.036968 -0.013279 0.543906 -0.503223 0.671515
0.039362 -0.054890 0.003348 0.527567 -0.732220 -0.430728
-0.019385 0.042517 -0.020947 -0.309794 0.656773 -0.687515
0.034105 -0.024268 -0.024418 0.012596 -0.006571 -0.999899
0.077094 -0.019926 0.026237 0.111029 -0.041226 -0.992962
-0.045011 -0.004073 -0.022276 0.620555 0.065524 0.781421
-0.010957 -0.028740 -0.022611 -0.009109 -0.045637 0.998917
-0.012510 -0.041186 -0.024403 -0.039670 -0.099209 -0.994275
0.023106 0.007970 -0.023307 -0.021629 -0.011772 -0.999697
-0.062713 0.016745 0.002521 0.861428 -0.238804 0.448234
0.025026 0.050458 -0.010265 -0.348941 -0.743249 0.570807
0.067829 0.008446 0.008225 -0.911301 -0.125930 0.392009
-0.041255 0.058707 0.025201 0.530972 -0.732012 0.426882
0.004313 -0.027928 -0.022538 0.021785 -0.065483 0.997616
0.000029 0.039489 -0.023273 -0.026409 0.089130 0.995670
-0.067935 0.013965 0.010070 -0.909635 0.195235 -0.366670
-0.003538 0.062679 -0.000443 0.058008 -0.867163 0.494634
0.006076 0.017340 -0.022534 -0.018678 0.021382 0.999597
-0.018137 -0.057373 -0.007099 0.228340 0.772091 0.593073
-0.046728 0.056119 0.026965 0.457336 -0.546509 0.701550
0.011629 0.054294 -0.012546 0.177850 0.738802 -0.650032
0.003698 -0.065806 0.002177 -0.034097 0.903806 0.426583
-0.061285 0.024744 0.003218 -0.836354 0.348058 -0.423518
-0.050526 0.053073 0.027141 0.471154 -0.493064 0.731370
0.002961 0.053539 -0.014696 0.052349 0.717567 -0.694520
-0.022032 -0.046820 -0.017477 -0.298458 -0.627235 -0.719374
-0.001357 0.064282 0.000160 -0.014189 0.887069 -0.461418
-0.040057 -0.025300 -0.021641 -0.651803 -0.310078 -0.692102
0.036815 0.055780 0.004717 0.482330 0.756695 -0.441328
0.046518 0.025403 -0.014688 -0.603579 -0.352496 0.715150
0.042640 -0.026124 -0.018217 -0.586286 0.373604 0.718810
0.048494 -0.004739 -0.019191 -0.700150 0.071335 0.710424
-0.038131 0.060858 0.021944 -0.542366 0.812426 -0.214017
-0.029469 -0.054974 -0.003630 0.388936 0.763282 0.515877
0.002961 0.053539 -0.014696 0.052349 0.717567 -0.694520
0.056530 0.054581 0.025435 0.010365 0.260521 -0.965413
0.070224 0.027262 0.027280 0.388057 0.122579 -0.913447
-0.039829 -0.023975 -0.022212 -0.649666 -0.343034 -0.678426
0.015967 -0.013686 -0.022332 0.018739 -0.005810 0.999808
-0.065577 -0.039713 0.029481 0.296959 0.182134 0.937359
-0.069289 0.023776 0.026909 0.724133 -0.236453 0.647860
0.045619 0.056167 0.023318 0.592044 0.754231 -0.283935
-0.014695 -0.068201 0.011813 0.196087 0.933400 0.300524
0.018845 0.048318 -0.015190 -0.234544 -0.648566 0.724121
-0.034367 -0.017023 -0.023063 -0.096945 -0.059956 0.993482
-0.057086 -0.034174 0.002705 -0.778015 -0.449507 -0.438903
0.064847 -0.035578 0.025057 0.805392 -0.472288 -0.358172
-0.054756 -0.046174 0.014511 -0.737222 -0.611569 -0.287205
-0.001368 0.068847 0.012911 0.018526 -0.950783 0.309303
0.010954 -0.050082 -0.017067 -0.141382 0.667687 0.730894
-0.030804 -0.072101 0.028128 0.136418 0.377342 -0.915971
0.056612 -0.032553 0.001540 -0.784775 0.402081 0.471655
0.065776 0.000097 0.000812 0.887174 0.007458 -0.461374
-0.028966 0.061600 0.010731 0.418526 -0.826637 0.376174
-0.042438 -0.058656 0.021801 0.621316 0.771112 0.139110
0.054995 0.011924 -0.012561 0.729065 0.183544 -0.659375
0.052021 -0.017985 -0.014563 0.675728 -0.227289 -0.701236
-0.006230 -0.059840 -0.008689 -0.112231 -0.788866 -0.604231
0.053057 -0.007572 -0.014706 -0.722840 0.092404 0.684810
0.005014 -0.070536 0.013860 -0.071969 0.971412 0.226228
0.052067 -0.021940 -0.011674 -0.695243 0.323770 0.641724
-0.020143 0.071625 0.028084 0.155949 -0.523811 0.837438
0.022926 0.061063 0.003920 -0.307453 -0.838621 0.449654
-0.052492 -0.055542 0.028228 -0.285163 -0.121518 -0.950745
0.003991 -0.022621 -0.022275 0.019628 -0.034107 0.999225
-0.032670 0.067963 0.027102 0.000584 0.025531 -0.999674
0.007535 -0.046540 -0.021408 -0.129154 0.747621 0.651446
-0.006487 0.070522 0.022907 0.103797 -0.962618 0.250186
-0.054407 -0.043395 0.008778 -0.716071 -0.576177 -0.394033
0.022364 0.054421 -0.007246 -0.286172 -0.751786 0.594073
0.055879 -0.023041 -0.006574 -0.760142 0.305187 0.573624
0.019176 -0.010300 -0.023431 -0.030397 0.026050 -0.999198
0.018108 0.069672 0.025243 -0.209774 -0.858614 0.467737
0.009762 -0.020379 -0.022444 0.044854 -0.057147 0.997358
-0.030895 -0.018996 -0.023026 -0.055090 -0.022712 0.998223
0.032897 0.061804 0.015462 -0.436414 -0.860356 0.263306
-0.003415 -0.065190 -0.000941 -0.055956 -0.870087 -0.489713
-0.056937 -0.043698 0.015117 -0.771568 -0.574954 -0.272232
-0.071948 0.000622 0.022615 0.973144 -0.026037 0.228719
-0.047353 0.051553 0.016172 0.625522 -0.749895 0.215360
-0.009431 -0.062601 -0.002644 0.089872 0.864187 0.495079
0.006680 -0.014763 -0.022268 0.008059 -0.044155 0.998992
-0.010549 -0.042187 -0.023566 0.039275 0.202079 0.978581
0.022335 -0.030092 -0.024171 -0.030899 0.042300 -0.998627
0.043937 -0.035309 -0.011878 -0.601731 0.463711 0.650302
0.029133 -0.058578 0.001314 -0.397770 0.795732 0.456717
-0.019660 -0.029959 -0.023902 0.050726 0.052585 -0.997327
-0.004971 -0.036431 -0.023990 -0.000289 0.077694 -0.996977
0.049603 0.051724 0.018580 0.664479 0.721567 -0.194443
0.002000 0.071025 0.022472 -0.021508 -0.964270 0.264046
-0.046213 -0.053873 0.012200 -0.622206 -0.707492 -0.335135
-0.078406 -0.006121 0.029641 -0.358751 0.000662 0.933433
-0.068942 0.009094 0.013292 0.948085 -0.133892 0.288457
-0.072076 -0.005660 0.019278 -0.973079 -0.066289 -0.220731
0.040781 -0.042177 -0.010657 0.552145 -0.538722 -0.636329
-0.003559 0.042674 -0.024374 -0.028823 0.278979 -0.959865
0.014542 0.022938 -0.022694 0.009812 0.041691 0.999082
-0.050520 0.031425 -0.006238 0.699909 -0.435958 0.565745
0.004434 -0.068084 0.007597 -0.022069 0.899791 0.435764
-0.035366 -0.010473 -0.022875 -0.069667 -0.042538 0.996663
0.025818 -0.072949 0.030141 -0.099107 0.285965 0.953101
-0.056135 -0.034231 0.003032 0.772625 0.439823 0.457828
-0.021066 0.058301 -0.001860 0.287463 -0.818058 0.498143
-0.048763 0.015022 -0.017197 -0.636272 0.201078 -0.744799
-0.042970 -0.008199 -0.023409 0.331017 0.061923 0.941591
0.008414 0.027229 -0.022813 0.005402 0.030125 0.999532
-0.002601 -0.058599 -0.009161 0.003606 0.787484 0.616325
-0.012345 -0.072932 0.027258 0.165524 0.836054 0.523083
0.047097 0.055748 0.026519 -0.467499 -0.597255 0.651714
0.070118 -0.006162 0.010676 0.942546 -0.051041 -0.330154
-0.032051 -0.032841 -0.023363 -0.409516 -0.392961 -0.823334
-0.048616 -0.011455 -0.017485 0.681681 0.148783 0.716362
0.079811 -0.008668 0.026185 0.509879 -0.148226 -0.847380
0.048955 0.004905 -0.018609 -0.680299 -0.055537 0.730827
-0.074160 0.022244 0.026562 -0.050260 -0.071998 -0.996138
0.006383 0.058180 -0.008907 0.070243 0.792750 -0.605486
-0.023554 -0.069099 0.024752 0.333067 0.910509 0.245030
0.026004 0.047633 -0.013054 -0.364812 -0.652437 0.664258
-0.014099 0.066869 0.008641 -0.189513 0.904620 -0.381770
0.062023 0.041433 0.026830 0.433359 0.306253 -0.847590
0.024612 -0.057058 -0.006071 0.326780 -0.756687 -0.566251
0.021587 0.047014 -0.016585 0.264170 0.611356 -0.745962
-0.020872 0.045724 -0.017716 -0.279264 0.604021 -0.746438
-0.058838 -0.026510 0.000553 0.836502 0.329482 0.437842
0.004699 -0.054789 -0.013598 -0.033929 0.716262 0.697006
0.058388 -0.040957 0.016586 -0.796840 0.557806 0.232161
0.032320 0.060784 0.009178 0.421328 0.824305 -0.378159
-0.003340 0.069834 0.017182 0.075155 -0.970455 0.229280
-0.036089 0.031940 -0.019562 -0.513552 0.452039 -0.729332
-0.061036 -0.040280 0.021037 -0.827575 -0.528193 -0.190083
-0.035649 -0.047411 -0.007974 0.463562 0.630277 0.622785
0.030152 -0.071049 0.028566 -0.005202 -0.063718 -0.997954
0.000383 -0.072400 0.015632 0.012872 -0.964654 -0.263207
0.069347 -0.018448 0.019730 -0.957720 0.218162 0.187555
-0.009342 -0.026875 -0.022490 0.007532 -0.030553 0.999505
0.028127 -0.037952 -0.021032 -0.418477 0.568825 0.708036
-0.050620 0.002363 -0.016568 0.689266 -0.018675 0.724268
-0.004709 -0.073881 0.025186 -0.071480 -0.946120 -0.315829
-0.067516 -0.023153 0.018044 0.923429 0.313510 0.221337
-0.018565 -0.075459 0.030149 0.019733 0.248935 0.968319
-0.042389 -0.015464 -0.022398 0.558625 0.131520 0.818926
-0.062697 -0.022297 0.002827 -0.849004 -0.293474 -0.439392
0.069362 0.010798 0.014027 -0.951342 -0.164650 0.260460
-0.011183 0.054667 -0.010653 0.164226 -0.763123 0.625039
0.070381 0.029816 0.028891 -0.214229 -0.072263 0.974107
-0.043565 0.065950 0.028047 -0.364070 0.795477 0.484427
-0.077776 -0.019534 0.026323 -0.581192 -0.185991 -0.792227
0.058438 -0.013869 -0.007108 -0.784896 0.139341 0.603756
-0.013767 0.026698 -0.023577 0.004101 -0.035780 -0.999351
0.050871 -0.041507 -0.000273 0.697144 -0.549271 -0.460750
-0.040463 -0.033056 -0.017016 -0.542835 -0.433216 -0.719482
-0.062139 0.033557 0.014098 -0.837114 0.469276 -0.281106
0.060642 -0.005588 -0.006067 -0.797830 0.056139 0.600262
-0.069034 0.031981 0.028940 0.266294 -0.124910 0.955764
0.060929 0.027746 0.003993 0.819841 0.371891 -0.435382
-0.009072 -0.045877 -0.021543 0.159633 0.640620 0.751082
0.004482 -0.057959 -0.009892 -0.056422 0.761798 0.645353
0.051265 -0.036139 -0.003093 -0.703078 0.468849 0.534661
-0.063513 0.029030 0.014376 0.863340 -0.417258 0.283794
0.021416 0.021038 -0.023692 -0.020404 -0.042086 -0.998906
0.017007 -0.017899 -0.023561 -0.033516 0.026656 -0.999083
-0.033453 0.060938 0.011907 -0.460598 0.831560 -0.310417
0.001842 0.057858 -0.008056 0.008454 -0.796603 0.604443
0.038602 -0.052562 0.001807 -0.486459 0.753356 0.442507
0.038799 -0.059037 0.013585 -0.548992 0.790713 0.270887
-0.004071 -0.020883 -0.022285 -0.016576 -0.032593 0.999331
0.033028 0.064498 0.023989 0.419178 0.836449 -0.353049
0.017342 0.010579 -0.022485 -0.009089 0.047198 0.998844
-0.001386 0.034115 -0.022964 -0.008319 0.036502 0.999299
0.020151 0.037693 -0.023541 -0.132603 -0.243748 0.960731
-0.055432 -0.024938 -0.005842 0.739548 0.329069 0.587182
-0.056670 -0.051380 0.029330 0.279253 0.259609 0.924457
-0.002475 -0.029101 -0.022672 0.008504 -0.044167 0.998988
0.043827 -0.017162 -0.022547 0.661678 -0.247220 -0.707859
-0.007386 0.070782 0.018654 -0.100513 0.975571 -0.195344
-0.004878 -0.071960 0.014627 -0.073837 -0.958643 -0.274868
0.010053 0.061899 -0.001056 -0.129606 -0.864395 0.485823
0.066649 -0.028161 0.016528 0.901406 -0.370991 -0.223233
-0.061253 -0.021027 0.001393 0.834565 0.286291 0.470680
0.028716 0.052821 -0.007217 0.385002 0.715239 -0.583272
0.025842 -0.058624 -0.000924 -0.356495 0.789405 0.499752
0.066662 -0.038068 0.029474 -0.265444 0.158678 0.950979
-0.059591 -0.041575 0.018847 -0.804105 -0.551196 -0.222707
-0.010302 0.069187 0.017299 0.164724 -0.957092 0.238415
0.029390 0.064933 0.022818 -0.385866 -0.897342 0.214207
0.006759 0.071087 0.019387 0.088081 0.975740 -0.200434
-0.071089 0.000667 0.018407 0.960823 -0.083964 0.264137
0.001000 0.004824 -0.022131 0.012443 0.036506 0.999256
-0.051652 -0.002795 -0.015925 0.675296 0.020572 0.737260
0.072369 0.007610 0.021116 0.981212 0.108712 -0.159387
-0.026561 0.061845 0.008730 0.379977 -0.837046 0.393663
0.015461 0.052918 -0.012904 0.174298 0.732516 -0.658058
0.058866 -0.042796 0.023665 -0.784757 0.583236 0.209743
0.048658 0.051824 0.020318 -0.675941 -0.713869 0.183014
0.046877 -0.053691 0.012015 0.633972 -0.700583 -0.327510
0.054428 -0.000742 -0.013659 -0.723980 0.003552 0.689812
0.050045 -0.004936 -0.017620 -0.678477 0.073084 0.730977
-0.035807 0.007634 -0.022681 -0.142228 0.015988 0.989705
-0.014893 0.057774 -0.005750 0.198570 -0.816827 0.541631
-0.039313 -0.057233 0.008151 -0.519268 -0.752856 -0.404436
0.016939 0.013715 -0.022469 0.010195 0.016790 0.999807
-0.055575 -0.045906 0.021488 0.761955 0.628632 0.155711
-0.012847 0.029739 -0.022875 -0.041082 0.034890 0.998546
0.003059 0.016465 -0.022542 0.009405 0.017642 0.999800
-0.026091 -0.030011 -0.024131 0.050376 0.063770 -0.996692
0.047196 -0.012191 -0.019262 -0.683261 0.170048 0.710097
-0.001446 -0.071713 0.013275 -0.022457 -0.952472 -0.303796
-0.062727 0.026081 0.009609 0.860861 -0.346420 0.372707
-0.057927 0.034205 0.007973 0.780770 -0.468114 0.413844
0.018880 0.066522 0.010326 0.243459 0.905420 -0.347767
0.066506 0.027014 0.017000 0.900047 0.375673 -0.220876
-0.057124 -0.003614 -0.009895 0.793524 0.078237 0.603489
-0.014530 0.001026 -0.022205 -0.014534 -0.012461 0.999817
-0.024664 0.008580 -0.023004 0.013643 -0.000814 -0.999907
-0.006007 0.058408 -0.008550 -0.088711 0.778265 -0.621638
0.006972 -0.067186 0.005889 -0.072583 0.895708 0.438679
0.024527 -0.067452 0.017015 -0.351477 0.914002 0.202644
0.070589 0.001202 0.011650 0.951667 0.014143 -0.306807
-0.042415 -0.045250 -0.004004 0.588028 0.623484 0.515259
0.048539 -0.057514 0.028663 -0.386347 0.420793 0.820774
0.005372 -0.041856 -0.023420 0.016645 0.042548 0.998956
0.018152 0.052230 -0.013006 0.241611 0.716310 -0.654617
-0.055228 -0.046640 0.017077 -0.750460 -0.620405 -0.227831
-0.045565 -0.046486 0.001417 0.610785 0.647482 0.455751
0.004022 -0.017338 -0.022292 0.006682 -0.019077 0.999796
0.063201 0.034131 0.017659 0.851226 0.483467 -0.204142
0.007724 0.034923 -0.023927 -0.015580 -0.053786 -0.998431
0.001605 -0.057013 -0.010942 -0.013059 0.770761 0.636990
0.045760 -0.032533 -0.012207 -0.605655 0.435711 0.665836
0.072065 -0.019735 0.028327 -0.620994 0.166965 0.765826
-0.062630 -0.032998 0.015553 0.840407 0.467456 0.274227
0.039190 -0.017589 -0.023669 -0.160991 0.049035 0.985737
0.015484 0.067925 0.012003 0.202229 0.930990 -0.303911
-0.023839 -0.030468 -0.024105 0.032471 0.069623 -0.997045
-0.048802 -0.045677 0.004815 0.667922 0.608309 0.428766
-0.012656 -0.065199 0.003491 0.180213 0.891291 0.416082
0.007285 -0.044609 -0.023064 -0.019344 0.420116 0.907264
-0.002729 -0.022861 -0.022340 -0.003230 -0.066073 0.997810
0.008748 -0.058925 -0.008215 -0.139993 0.772521 0.619365
-0.020743 -0.038199 -0.023538 0.110416 0.203906 0.972744
-0.041623 -0.058034 0.017822 0.556138 0.796590 0.236969
0.024238 0.062479 0.007188 -0.320468 -0.846066 0.425997
0.060739 -0.023481 -0.000966 0.810563 -0.316030 -0.493064
-0.041090 0.063834 0.028668 0.206992 -0.237962 0.948962
-0.016299 -0.069290 0.020488 0.210077 0.929445 0.303316
0.061632 0.036270 0.016514 0.832334 0.507280 -0.223353
-0.016028 -0.067200 0.006882 -0.213011 -0.891482 -0.399859
0.026181 0.053276 -0.006647 -0.363252 -0.725723 0.584273
0.042978 0.023782 -0.019558 0.590896 0.340169 -0.731524
-0.018059 0.072050 0.027950 0.153700 -0.548315 0.822026
-0.044121 -0.043684 -0.005542 -0.594318 -0.585330 -0.551520
-0.034148 0.062824 0.024257 0.458152 -0.819689 0.343813
0.047876 -0.036803 -0.006878 -0.618217 0.509350 0.598641
-0.021066 0.058301 -0.001860 0.287463 -0.818058 0.498143
-0.066874 0.025384 0.017636 -0.912326 0.354889 -0.204243
0.068811 -0.016012 0.015033 -0.955989 0.221746 0.192128
-0.048613 -0.025159 -0.013204 0.647082 0.267199 0.714066
0.044540 0.041139 -0.005459 -0.612739 -0.584860 0.531497
0.073527 0.018459 0.027618 0.283459 0.114260 -0.952153
0.035103 -0.058541 0.004897 0.460942 -0.776980 -0.428758
0.012765 0.038708 -0.024318 -0.004703 0.010746 -0.999931
-0.070264 -0.022377 0.025524 -0.854014 -0.210367 -0.475822
0.049545 -0.025398 -0.014003 0.656603 -0.330822 -0.677812
-0.012902 -0.042010 -0.023435 0.049299 0.253155 0.966169
-0.052701 -0.026890 -0.009192 -0.713854 -0.354009 -0.604227
0.064797 -0.034035 0.025830 -0.817158 0.448000 0.362698
-0.021882 0.003840 -0.022116 -0.019252 -0.005466 0.999800
0.067427 -0.029636 0.023138 0.901342 -0.389695 -0.188999
0.048745 0.009087 -0.019405 0.680878 0.178970 -0.710194
-0.004642 -0.067602 0.003892 -0.069013 -0.901991 -0.426203
0.065147 -0.029247 0.013256 0.872162 -0.393579 -0.290566
-0.002713 0.066794 0.005506 -0.041319 0.904393 -0.424695
0.036433 -0.055135 0.000490 0.495517 -0.731657 -0.468124
-0.033029 -0.060403 0.010453 0.493863 0.807721 0.322005
-0.051968 -0.017159 -0.014318 -0.680581 -0.216124 -0.700071
0.051451 0.037185 -0.000116 -0.681685 -0.565976 0.463656
0.053254 -0.042745 0.007375 -0.700524 0.590934 0.400079
0.064359 0.013826 0.003121 -0.877317 -0.196303 0.437927
-0.070593 0.017037 0.022587 -0.947432 0.234368 -0.217819
-0.004614 -0.047380 -0.020928 0.053564 0.720232 0.691662
-0.073277 0.013896 0.028133 0.582398 -0.111146 0.805269
-0.039029 -0.059445 0.016805 0.547074 0.809477 0.213206
0.050227 0.006528 -0.017448 -0.680101 -0.105527 0.725484
0.054372 -0.060784 0.028208 0.623828 -0.608415 0.490582
0.032841 -0.066865 0.028291 -0.322100 0.670177 0.668667
-0.052705 0.059458 0.027223 -0.661994 0.749372 0.014311
0.063000 -0.035310 0.020782 -0.863525 0.470175 0.182372
-0.018372 -0.000553 -0.022987 0.005725 0.005382 -0.999969
-0.003753 0.056045 -0.010254 0.041530 -0.776023 0.629336
0.064219 -0.023102 0.005292 0.849202 -0.310502 -0.427135
0.033468 0.013473 -0.022887 0.048480 0.039292 0.998051
-0.033748 -0.039103 -0.016428 0.442769 0.507468 0.739210
-0.048613 -0.025159 -0.013204 0.647082 0.267199 0.714066
0.006076 0.017340 -0.022534 -0.018678 0.021382 0.999597
0.068420 -0.011564 0.011422 -0.980573 0.098155 0.169828
-0.031043 0.025113 -0.023351 -0.079752 0.058924 0.995072
0.046310 -0.051338 0.009251 -0.658482 0.671250 0.340329
-0.025999 0.064308 0.014812 0.355647 -0.894653 0.270392
0.004427 -0.074497 0.028281 -0.046418 0.753684 0.655596
-0.077258 -0.018947 0.029372 -0.614019 -0.153261 0.774268
0.011630 -0.012996 -0.022391 0.046052 -0.013484 0.998848
0.069873 0.003244 0.009613 0.930321 0.059800 -0.361837
-0.051856 0.050058 0.024810 0.669828 -0.650516 0.357993
-0.055453 -0.020942 -0.007657 0.751632 0.274766 0.599627
-0.066436 0.004358 0.003704 -0.896733 0.075225 -0.436133
-0.006091 -0.064422 -0.000082 0.090331 0.841027 0.533399
-0.037949 0.057306 0.012515 0.528368 -0.792142 0.305512
-0.004539 -0.042429 -0.023512 -0.007362 0.057947 0.998293
-0.050347 0.049886 0.016141 -0.682521 0.688887 -0.244130
-0.043538 0.054739 0.016676 0.608173 -0.754901 0.245457
0.067031 -0.012136 0.007940 -0.903982 0.144949 0.402252
0.066447 -0.026917 0.013942 0.893563 -0.353771 -0.276389
0.070546 -0.002557 0.014448 -0.965604 -0.007614 0.259905
-0.051537 -0.030479 -0.006923 0.693774 0.405750 0.595017
0.062059 0.030100 0.008238 0.822093 0.413062 -0.391846
0.035561 -0.030051 -0.023276 0.463631 -0.364304 -0.807669
0.008550 -0.078710 0.027258 -0.088955 0.135911 -0.986720
-0.048540 -0.040592 -0.003704 -0.641585 -0.522280 -0.561777
0.050543 0.033206 -0.005675 -0.653048 -0.514971 0.555277
0.029505 -0.052270 -0.007596 -0.393903 0.693204 0.603579
-0.051288 -0.028683 -0.008566 0.706369 0.384555 0.594274
0.029759 -0.040130 -0.019529 0.418499 -0.583823 -0.695707
-0.056411 -0.015096 -0.008461 0.730904 0.164545 0.662348
0.065191 -0.005332 0.002205 -0.887697 0.055752 0.457041
-0.041009 -0.009216 -0.024288 -0.040682 -0.001292 -0.999171
-0.009264 0.039037 -0.023477 0.006483 0.061965 0.998057
0.021397 -0.061736 0.000790 -0.314996 0.832936 0.454968
0.056799 -0.022806 -0.007289 0.757195 -0.278159 -0.591002
0.017232 -0.065324 0.003538 0.236548 -0.871377 -0.429821
-0.064656 0.029344 0.015449 -0.879054 0.404273 -0.252640
-0.055228 -0.046640 0.017077 -0.750460 -0.620405 -0.227831
-0.066819 -0.014128 0.006750 -0.892494 -0.182085 -0.412673
-0.039095 -0.040495 -0.011592 0.551975 0.491446 0.673650
0.003895 0.010734 -0.022232 -0.006908 0.021549 0.999744
0.033196 0.012921 -0.023766 -0.069943 -0.037865 -0.996832
0.048710 0.018826 -0.016630 0.647519 0.236326 -0.724479
-0.068306 -0.042660 0.026782 -0.652381 -0.227950 -0.722798
0.025783 -0.058860 -0.002829 0.348413 -0.783371 -0.514722
-0.028966 0.061600 0.010731 0.418526 -0.826637 0.376174
0.047070 -0.065019 0.026521 0.010699 -0.267481 -0.963504
0.067120 0.026266 0.023420 -0.902052 -0.354175 0.246702
0.008544 0.073212 0.026314 0.170014 0.352273 -0.920325
0.009425 -0.055157 -0.012536 -0.131877 0.719659 0.681689
-0.017353 -0.055346 -0.009869 0.224259 0.745000 0.628238
0.056289 -0.035040 0.003117 -0.772295 0.481150 0.414795
-0.030445 -0.066619 0.025842 0.431541 0.847190 0.309906
0.007297 -0.035134 -0.023116 0.039217 -0.057060 0.997600
0.065425 0.034036 0.026067 0.696516 0.345280 -0.629005
0.016932 0.063177 0.002108 0.231117 0.862707 -0.449802
0.052109 -0.051769 0.021901 0.693970 -0.696285 -0.183286
0.070935 -0.011040 0.020629 -0.974225 0.150109 0.168383
-0.070558 0.034472 0.025835 -0.169024 0.098573 -0.980670
0.077953 0.016308 0.026213 0.393733 0.066277 -0.916832
0.063964 -0.015006 0.002481 -0.874504 0.199922 0.441899
0.058277 -0.031111 0.003009 -0.771145 0.417045 0.481049
-0.013494 0.046308 -0.018315 0.212192 -0.658220 0.722303
0.060430 0.006054 -0.005621 -0.836049 -0.063322 0.544988
-0.012016 -0.076966 0.028648 0.038902 0.111593 -0.992992
0.063133 0.014776 0.001237 -0.854822 -0.213071 0.473161
-0.042234 0.054712 0.013966 0.581021 -0.767513 0.270811
-0.018238 -0.070489 0.023571 0.230515 0.955154 0.185862
0.072837 0.000861 0.020697 0.986036 0.028826 -0.164018
0.079200 -0.001901 0.025898 0.042940 -0.095043 -0.994547
0.022137 0.041975 -0.020457 0.328279 0.637584 -0.696936
0.061086 -0.009817 -0.004346 -0.828297 0.158911 0.537281
-0.019410 -0.053239 -0.011692 0.263800 0.703599 0.659817
-0.037910 0.033569 -0.017506 -0.499386 0.439282 -0.746756
-0.049543 0.025597 -0.012504 -0.669256 0.332331 -0.664569
0.000720 0.072630 0.026674 -0.003675 -0.755908 0.654667
0.033278 -0.060191 0.006010 0.430325 -0.795859 -0.425944
-0.068808 -0.021617 0.021494 0.940667 0.270041 0.205483
-0.044780 -0.018382 -0.019047 0.657323 0.290804 0.695241
-0.063455 0.032564 0.022088 0.861873 -0.456305 0.221272
0.035108 0.012814 -0.022935 0.088475 0.030407 0.995614
0.031751 0.046592 -0.010556 -0.406636 -0.642197 0.649793
-0.039629 -0.066527 0.028559 0.013462 0.007720 -0.999880
0.005320 0.063365 0.000803 -0.044338 -0.895593 0.442659
-0.054826 0.042754 0.014552 0.746799 -0.601544 0.283612
-0.046041 0.044681 0.001754 0.624123 -0.625523 0.468178
0.058502 -0.028744 0.001355 -0.776732 0.391498 0.493372
-0.028802 0.013520 -0.022306 -0.042957 0.023910 0.998791
0.056658 0.029761 -0.001851 0.752819 0.421078 -0.505922
-0.023780 0.074674 0.025525 -0.216854 0.423265 -0.879671
0.054772 -0.031686 -0.002487 -0.754968 0.422455 0.501553
-0.022199 -0.040631 -0.021723 0.321723 0.547333 0.772607
0.060012 -0.031326 0.004122 0.800710 -0.411477 -0.435374
-0.035454 -0.062488 0.014504 -0.485552 -0.830274 -0.273649
0.070038 0.039017 0.027005 0.841586 0.529758 -0.105310
-0.003991 -0.066614 0.001674 -0.061721 -0.891396 -0.449004
0.021397 -0.061736 0.000790 -0.314996 0.832936 0.454968
-0.041118 -0.039115 -0.010736 0.556022 0.525222 0.644191
0.027300 0.008392 -0.022428 0.027186 0.029748 0.999188
-0.044111 0.031841 -0.012637 0.596553 -0.428374 0.678691
0.020362 -0.063222 0.003570 -0.262021 0.865470 0.426974
-0.013104 -0.044278 -0.023506 -0.146565 -0.507761 -0.848939
0.009520 -0.061618 -0.003949 -0.126785 0.838689 0.529647
-0.041368 -0.027614 -0.018887 -0.611234 -0.335718 -0.716719
-0.049540 0.049167 0.012303 -0.670682 0.672903 -0.312069
-0.005629 0.054611 -0.011942 0.070418 -0.751310 0.656182
0.003036 -0.029520 -0.022668 0.030994 -0.079820 0.996327
0.062201 0.007373 -0.002485 -0.853544 -0.076549 0.515367
0.062000 -0.000894 -0.005609 0.842073 0.000813 -0.539363
0.030039 0.001625 -0.023483 -0.044124 0.016194 -0.998895
-0.013684 -0.027391 -0.022617 -0.023459 -0.050658 0.998440
0.066822 -0.029949 0.026115 -0.839292 0.372711 0.395822
0.039172 -0.021494 -0.023227 -0.365167 0.190110 0.911324
-0.011237 0.065579 0.006913 0.167461 -0.895064 0.413300
0.027459 -0.074951 0.026874 0.005711 0.018875 -0.999806
0.070275 -0.012787 0.017841 -0.958647 0.183739 0.217339
-0.051887 -0.016646 -0.013251 0.679857 0.223151 0.698569
0.026704 -0.006970 -0.022508 0.019560 -0.035999 0.999160
0.004664 0.014234 -0.022366 0.000079 0.057009 0.998374
-0.053566 -0.028360 -0.005882 0.734128 0.383604 0.560272
-0.017901 -0.068477 0.015893 0.237696 0.967622 0.084901
-0.048186 0.060407 0.029241 -0.053298 0.135500 0.989343
-0.016572 0.065349 0.006812 -0.229414 0.882259 -0.411082
0.061086 -0.028590 0.005832 -0.824074 0.368208 0.430493
-0.047802 -0.018612 -0.016256 0.671114 0.235284 0.703027
0.058912 0.033440 0.007843 -0.780734 -0.475200 0.405757
0.065147 -0.029247 0.013256 0.872162 -0.393579 -0.290566
0.062460 0.031612 0.014081 -0.845214 -0.459737 0.272497
-0.055442 0.018562 -0.007955 0.753661 -0.284689 0.592408
0.009240 0.063772 0.000441 0.124381 0.878622 -0.461035
-0.005556 0.029112 -0.022898 -0.005491 0.056080 0.998411
-0.046578 0.052969 0.019864 0.630664 -0.750083 0.199096
-0.060059 0.039512 0.020165 -0.822323 0.540274 -0.178576
-0.063270 -0.032029 0.012795 -0.848765 -0.425786 -0.313535
0.007139 0.046217 -0.020932 0.127008 0.700298 -0.702461
0.028756 -0.067496 0.020090 0.385169 -0.905828 -0.176408
-0.049689 0.053869 0.025940 -0.534434 0.578087 -0.616600
-0.013979 -0.055989 -0.010211 0.180264 0.745585 0.641566
-0.005899 0.020404 -0.022393 0.019765 0.018314 0.999637
0.055324 0.002432 -0.012687 -0.738126 -0.047124 0.673015
0.036342 -0.049512 -0.007136 0.496630 -0.653742 -0.570946
-0.058352 0.039903 0.019635 0.812847 -0.544023 0.208132
-0.037735 -0.027878 -0.022259 -0.566878 -0.383883 -0.728892
-0.021146 -0.015223 -0.023343 0.036263 0.024633 -0.999039
-0.003991 -0.066614 0.001674 -0.061721 -0.891396 -0.449004
-0.016025 0.013990 -0.022159 0.015649 0.034864 0.999270
0.070221 0.018607 0.020685 0.948031 0.263375 -0.178526
0.056236 0.029328 -0.000953 -0.768871 -0.428294 0.474765
-0.019299 0.044575 -0.018164 0.266350 -0.621430 0.736806
0.014483 -0.011804 -0.022475 -0.021204 -0.024238 0.999481
0.044209 0.058099 0.026400 -0.479595 -0.603762 0.636758
0.070589 0.005177 0.015914 -0.964210 -0.083206 0.251744
0.064279 -0.025304 0.009424 -0.863271 0.317175 0.392637
-0.045957 -0.007144 -0.020944 0.705445 0.078159 0.704442
0.011728 0.027121 -0.022959 0.029939 0.004617 0.999541
0.052207 -0.054780 0.029087 -0.332824 0.370986 0.866947
-0.061511 0.004488 -0.005315 -0.833671 0.063879 -0.548554
0.065310 0.032460 0.026195 -0.766477 -0.408310 0.495779
0.044799 -0.003302 -0.023052 -0.461048 -0.006014 0.887355
-0.009634 -0.030888 -0.023712 0.008813 0.053328 -0.998538
-0.039900 0.062862 0.027857 0.287133 -0.436194 0.852812
0.066388 0.014983 0.005748 0.868357 0.200135 -0.453764
-0.022970 -0.065989 0.008615 -0.310034 -0.865732 -0.392921
0.071646 -0.015082 0.021920 0.962572 -0.184603 -0.198438
0.012779 0.078711 0.026721 0.130833 0.984253 -0.118861
-0.018975 -0.050786 -0.015267 -0.267164 -0.651645 -0.709917
-0.050520 0.031425 -0.006238 0.699909 -0.435958 0.565745
0.013033 0.029616 -0.022883 0.030917 0.015718 0.999398
0.039720 0.001226 -0.024197 -0.089117 0.012964 -0.995937
0.069873 -0.002929 0.012154 -0.939637 0.016724 0.341764
-0.047556 -0.047536 0.005706 0.632841 0.653943 0.414573
-0.017011 -0.046731 -0.018455 0.245156 0.671598 0.699181
-0.061416 -0.026072 0.005103 0.814210 0.351963 0.461718
0.029345 0.013585 -0.022681 0.057490 0.043880 0.997381
-0.033568 0.061952 0.020105 0.453717 -0.869448 0.195448
0.007139 0.046217 -0.020932 0.127008 0.700298 -0.702461
-0.008483 -0.074368 0.028489 0.084442 0.714293 0.694734
0.064271 0.015269 0.001704 0.866318 0.209527 -0.453422
-0.036754 0.059135 0.012286 -0.502879 0.805206 -0.314257
0.051706 -0.045114 0.005627 0.672898 -0.598228 -0.435123
-0.073617 0.007944 0.027527 0.679458 -0.083552 0.728941
-0.077813 -0.014449 0.026069 -0.091949 0.009055 -0.995723
-0.043246 -0.068762 0.028001 -0.587754 -0.802441 -0.103121
0.042969 -0.046135 -0.002630 -0.595294 0.644127 0.480339
-0.059875 0.035040 0.012996 0.822280 -0.486447 0.295338
0.037723 0.060350 0.021229 -0.503902 -0.839975 0.201310
-0.047975 0.048795 0.008621 -0.643168 0.662920 -0.383238
-0.043217 -0.055717 0.010721 -0.582124 -0.728483 -0.361170
0.029303 0.058998 0.002930 0.387228 0.807382 -0.445184
-0.049648 -0.054207 0.022436 -0.665293 -0.730699 -0.153181
0.051277 -0.003114 -0.017853 0.670877 -0.036877 -0.740651
0.066486 0.017100 0.007199 0.880248 0.239236 -0.409792
0.041528 -0.046267 -0.004502 -0.564485 0.645314 0.514710
-0.066925 0.023839 0.015211 -0.910248 0.333996 -0.244735
0.047910 -0.057846 0.027219 0.490852 -0.561923 -0.665813
0.054354 0.046313 0.016575 0.741425 0.634525 -0.218328
-0.013502 0.022908 -0.022439 -0.005658 0.019070 0.999802
-0.019299 0.044575 -0.018164 0.266350 -0.621430 0.736806
0.052067 -0.021940 -0.011674 -0.695243 0.323770 0.641724
-0.059113 0.046723 0.027600 -0.085480 0.061501 -0.994440
0.019430 0.000105 -0.023289 -0.020536 0.014177 -0.999689
0.022740 0.027867 -0.023025 0.035996 0.059376 0.997586
-0.010603 0.010131 -0.023091 -0.007393 -0.018932 -0.999793
-0.048931 -0.042479 -0.001143 -0.664013 -0.560397 -0.495016
-0.061044 0.014116 -0.003549 -0.831539 0.200016 -0.518205
0.002408 0.067774 0.009527 -0.021740 -0.937284 0.347888
-0.050821 -0.046587 0.007451 -0.670804 -0.617122 -0.411319
0.024193 0.056900 -0.002869 -0.321850 -0.793234 0.516907
-0.040025 -0.019483 -0.023961 -0.352061 -0.168670 -0.920654
0.038576 -0.061274 0.015755 0.511738 -0.822565 -0.248014
-0.007386 0.070782 0.018654 -0.100513 0.975571 -0.195344
0.022681 0.071304 0.026942 0.020791 0.157941 -0.987230
-0.020561 0.009517 -0.022144 0.007937 0.015008 0.999856
-0.028854 -0.053462 -0.006072 0.368906 0.722639 0.584553
-0.019865 0.029696 -0.023763 0.027766 -0.058081 -0.997926
0.003668 -0.000915 -0.022140 0.035552 -0.005469 0.999353
0.019147 -0.066563 0.009214 -0.270850 0.887178 0.373572
0.001896 -0.050962 -0.018430 0.037363 -0.692701 -0.720256
-0.009408 0.031541 -0.023688 0.005589 -0.042596 -0.999077
-0.064179 -0.002420 -0.001382 -0.868158 -0.020138 -0.495880
0.018643 -0.051826 -0.014665 0.241356 -0.675421 -0.696817
0.040374 0.057010 0.014853 -0.569676 -0.778623 0.263089
-0.031418 -0.052879 -0.005450 0.408825 0.706947 0.577138
-0.057225 -0.016367 -0.008576 -0.765673 -0.218528 -0.604971
-0.016350 -0.006586 -0.023096 0.007375 0.014736 -0.999864
0.033277 0.038446 -0.016498 -0.434171 -0.524952 0.732066
0.022922 0.057726 -0.003742 0.308456 0.813424 -0.493150
-0.000300 -0.072700 0.024671 0.004483 0.960975 0.276598
-0.015028 -0.064016 0.000086 -0.209996 -0.852094 -0.479414
0.051795 -0.000270 -0.017593 0.712372 -0.053864 -0.699732
0.066382 0.013225 0.005104 0.887831 0.176805 -0.424848
-0.045102 0.011249 -0.020853 0.713160 -0.194273 0.673544
0.009876 0.058799 -0.007618 0.133014 0.794868 -0.592024
0.012875 0.066192 0.008568 -0.175441 -0.904942 0.387685
-0.071315 0.013875 0.025756 0.872956 -0.167597 0.458103
-0.034476 -0.006794 -0.022714 -0.060843 -0.025812 0.997814
0.019510 0.067269 0.016567 -0.255747 -0.941717 0.218545
0.005784 0.066613 0.007194 -0.094308 -0.901085 0.423263
0.034176 -0.058760 0.006439 -0.469933 0.773562 0.425163
-0.012560 0.072921 0.026756 -0.028956 0.383731 -0.922991
-0.071036 0.012102 0.019518 -0.964267 0.170355 -0.202898
0.029303 0.058998 0.002930 0.387228 0.807382 -0.445184
-0.043056 -0.057025 0.013332 -0.584415 -0.755354 -0.296479
-0.051625 -0.041699 0.001975 -0.705888 -0.541383 -0.456757
0.038347 0.035845 -0.016298 0.491560 0.476136 -0.729153
