-0.017628 0.050004 0.081413 0.225509 0.974182 0.010753
0.039735 -0.015912 -0.014538 0.979076 -0.203427 0.005357
-0.026780 -0.037131 -0.027178 -0.201951 -0.979386 -0.004436
-0.035203 -0.035167 -0.101528 -0.181486 -0.983371 -0.006711
0.048354 0.034888 0.058285 0.692778 0.720993 0.015074
-0.023360 -0.023821 0.084807 -0.010728 0.014490 0.999837
-0.013640 0.049701 -0.046832 0.224536 0.974424 0.009022
0.033371 -0.045989 -0.073476 0.852481 -0.522269 0.022601
-0.017906 -0.039208 0.015195 -0.204604 -0.978796 -0.009808
-0.051362 -0.022285 -0.066884 -0.985075 0.171731 -0.011627
0.046849 0.018603 0.050990 0.973134 -0.229846 0.013432
-0.035742 0.045840 0.084261 -0.105929 -0.050118 0.993110
0.049248 0.034666 -0.056244 0.830116 0.556470 -0.035339
0.013878 0.043408 -0.115591 0.227097 0.973847 0.007052
0.037843 -0.022430 0.066587 0.975493 -0.219937 0.006440
-0.014926 0.012083 0.084585 -0.023188 -0.091496 0.995535
-0.043177 0.017768 -0.119510 -0.757275 0.140720 -0.637756
-0.042017 0.028250 0.055705 -0.973657 0.227946 -0.005664
0.034899 0.037995 0.068925 0.205940 0.978507 0.010632
-0.045039 0.014614 0.039305 -0.979419 0.201615 -0.009469
-0.024204 0.051731 0.063906 0.225387 0.974252 0.005724
0.039269 -0.014845 0.072752 0.981381 -0.191788 0.010401
0.041627 -0.009269 -0.119734 0.653982 -0.207781 -0.727416
0.007035 0.044491 0.060046 0.226932 0.973890 0.006281
0.007162 0.044538 0.033858 0.225153 0.974323 0.000821
0.030806 0.039433 -0.048281 0.228074 0.973644 -0.000593
0.027853 0.039979 -0.002716 0.227290 0.973825 0.001897
-0.030116 -0.036809 0.024669 -0.200708 -0.979612 -0.008710
-0.004846 0.047664 -0.094875 0.210332 0.977212 -0.028577
0.014119 -0.045520 -0.072454 -0.202650 -0.979243 -0.003922
-0.048231 -0.005261 -0.071214 -0.983262 0.182190 -0.001803
0.047540 0.035984 -0.092652 0.334409 0.942396 0.007811
-0.038994 0.038540 -0.076599 -0.976979 0.208829 -0.043626
-0.050443 -0.015055 -0.036228 -0.982250 0.187206 -0.011810
-0.000950 -0.043076 0.038694 -0.201697 -0.979442 -0.003319
0.025650 -0.047969 -0.063796 -0.202633 -0.979231 -0.006882
-0.018699 0.050813 -0.024332 0.221767 0.975099 0.001119
0.041929 0.037168 -0.078986 0.213443 0.976920 0.008304
-0.031086 -0.036293 -0.027254 -0.205712 -0.978592 -0.006314
0.019290 0.042159 -0.045310 0.224837 0.974391 -0.003224
0.035246 -0.034798 0.046714 0.977132 -0.212511 0.007255
0.033735 0.006723 -0.119773 -0.005331 -0.018738 -0.999810
-0.010542 0.048483 0.066536 0.221035 0.975227 0.008700
-0.013215 -0.039697 0.084825 -0.192169 -0.707569 0.680012
0.036439 -0.031501 -0.017373 0.978620 -0.205524 0.007969
-0.000922 0.028740 0.084866 -0.039375 -0.006255 0.999205
0.045398 0.036395 -0.091228 0.211164 0.977450 0.001395
0.041118 0.005905 0.085341 0.000807 0.036164 0.999346
-0.009491 0.048681 0.004223 0.211609 0.977353 0.001909
-0.023297 -0.005929 0.084677 -0.029070 0.011811 0.999508
0.050449 0.031289 -0.115206 0.999145 -0.039796 0.011194
-0.049090 -0.032124 -0.108830 -0.448171 -0.893560 -0.026348
-0.018440 -0.039210 0.026922 -0.203209 -0.979119 -0.005693
0.044917 0.009846 0.051430 0.975023 -0.221795 0.011695
0.032516 -0.021419 -0.119626 -0.003650 -0.000588 -0.999993
0.004007 -0.043270 -0.119456 -0.205906 -0.889792 -0.407275
-0.001826 0.011434 0.084852 -0.015463 -0.042340 0.998984
-0.014947 -0.039418 -0.078108 -0.212465 -0.977128 0.008897
-0.045130 -0.033292 -0.050410 -0.202331 -0.979316 -0.001412
-0.010510 -0.040677 -0.026919 -0.212313 -0.977168 -0.008157
-0.032503 -0.035571 -0.109267 -0.199808 -0.979778 -0.010539
0.031768 -0.047612 -0.011193 0.667855 -0.744066 0.018286
0.040599 -0.012740 -0.059329 0.981215 -0.192767 0.007642
0.037944 -0.023336 -0.119765 0.235012 -0.045535 -0.970925
-0.044983 0.011119 -0.069024 -0.977385 0.211420 0.004485
0.004367 0.044982 0.082492 0.230006 0.971941 0.049267
-0.035436 0.044401 -0.119952 -0.069016 0.032871 -0.997074
-0.032782 -0.035676 -0.067930 -0.205661 -0.978538 -0.012961
0.039927 0.037550 -0.115292 0.208997 0.977839 0.012339
-0.033518 -0.035773 -0.023330 -0.207294 -0.978270 -0.004172
-0.008632 0.005394 -0.119539 -0.010588 -0.020760 -0.999728
0.049777 0.033208 -0.051758 0.975607 0.217399 -0.030467
-0.032858 -0.036348 0.040919 -0.211119 -0.977452 -0.004109
-0.016548 0.041219 0.084430 -0.144701 -0.041911 0.988587
-0.042620 0.025015 -0.003119 -0.973816 0.227337 0.000136
0.040965 -0.008528 0.032189 0.977716 -0.209867 0.005305
-0.009600 0.021510 0.085137 -0.047148 -0.005679 0.998872
0.040114 0.019075 0.085365 -0.048345 0.170919 0.984098
0.000302 0.046691 -0.092563 0.225833 0.974162 -0.002844
-0.047847 0.000719 0.041827 -0.978337 0.206782 -0.009876
0.038380 -0.022134 -0.011524 0.976000 -0.217636 0.007625
0.041067 -0.007171 0.051570 0.977699 -0.209685 0.011745
0.048848 0.034253 0.041778 0.854964 0.518044 0.025813
0.032635 -0.046895 -0.086825 0.716215 -0.696070 0.050221
0.046986 0.020272 0.082100 0.969206 -0.237536 0.064925
0.050177 0.033106 -0.096626 0.975786 0.218606 0.007253
0.003779 0.045381 0.031253 0.232695 0.972548 0.001904
0.032729 -0.046485 -0.020982 0.826542 -0.562874 0.001445
0.035494 -0.035405 -0.002725 0.980446 -0.196666 0.006988
-0.046187 0.003313 -0.112745 -0.982512 0.186186 -0.002087
0.040539 0.036923 0.049227 0.213643 0.976911 -0.000948
-0.001580 0.041446 0.085097 0.148228 -0.000809 0.988953
0.026138 0.040529 -0.058373 0.226059 0.974057 0.010517
0.028239 0.040048 -0.046412 0.227384 0.973805 -0.000773
-0.020710 0.051857 -0.119426 0.139196 0.837590 -0.528268
0.000375 -0.042552 -0.113413 -0.201237 -0.979393 -0.017131
0.002718 -0.007922 -0.119520 -0.005718 0.000581 -0.999983
0.005201 -0.043729 -0.064926 -0.210203 -0.977598 -0.010856
-0.052516 -0.023275 0.059125 -0.981956 0.189104 -0.001506
0.016867 0.042547 -0.005712 0.227390 0.973731 0.011881
-0.037272 0.002591 -0.119502 0.012890 -0.000050 -0.999917
0.037004 -0.025678 0.074524 0.972862 -0.231314 0.005800
-0.031179 0.029782 -0.119865 0.000989 -0.012353 -0.999923
0.031599 -0.047768 -0.062047 0.467543 -0.883905 0.010697
0.011403 0.044012 -0.038967 0.215814 0.976366 0.011537
0.049023 0.033033 0.079931 0.967099 0.254336 0.005750
-0.009820 -0.041193 0.043285 -0.212504 -0.977153 -0.003796
0.046388 0.017146 0.061890 0.974451 -0.224554 0.004447
-0.051276 -0.021330 -0.063574 -0.984618 0.174590 -0.006687
0.005117 -0.043763 -0.053518 -0.189924 -0.981799 -0.000545
-0.008597 -0.041150 -0.003717 -0.208645 -0.977991 -0.000358
-0.038101 0.037691 0.084581 -0.188272 0.045817 0.981048
0.001222 -0.035022 0.085073 -0.003849 0.008502 0.999956
-0.052151 -0.030323 0.039196 -0.854808 -0.518537 0.020555
0.026492 -0.048449 -0.006292 -0.177373 -0.984112 -0.007889
0.030225 0.039191 0.020408 0.230603 0.973029 0.006109
0.043001 -0.000877 -0.033868 0.975995 -0.217734 -0.005091
0.035190 0.038352 -0.030462 0.211996 0.977270 0.000823
-0.048374 -0.001118 0.061672 -0.981047 0.193738 -0.003489
0.049842 0.030990 -0.015013 0.999571 -0.028873 0.004948
-0.013845 0.025762 -0.119805 -0.001656 -0.005958 -0.999981
0.048540 0.034291 0.083641 0.853717 0.520439 0.017628
-0.051668 -0.017846 0.066109 -0.982529 0.185848 -0.009887
0.018993 -0.046497 -0.081750 -0.204375 -0.978893 -0.000612
0.041742 -0.004087 0.048966 0.977265 -0.211732 0.011098
0.047112 0.018418 -0.005732 0.977163 -0.212461 0.003588
0.023921 -0.017267 -0.119543 -0.004844 0.002889 -0.999984
0.043890 0.003738 -0.005316 0.974802 -0.223003 0.005541
-0.043905 0.012118 -0.119659 -0.481420 0.110686 -0.869473
0.015284 0.042706 0.024032 0.237167 0.971401 0.011463
-0.038531 -0.035799 0.080195 -0.143613 -0.989449 -0.019148
0.048404 0.024535 0.001931 0.975433 -0.220296 -0.000646
0.005429 -0.014946 0.085223 0.018618 0.012190 0.999752
-0.035241 0.051727 -0.109939 -0.885719 0.463990 -0.014657
0.036579 0.037715 0.030488 0.210056 0.977682 -0.003757
-0.030332 -0.032033 -0.119906 0.001279 0.058304 -0.998298
0.018597 0.042479 -0.101876 0.216838 0.976172 -0.008396
0.025155 0.040869 -0.119757 0.185168 0.600587 -0.777822
0.047352 0.019792 0.027383 0.978346 -0.206968 0.002007
-0.026391 -0.037521 0.021539 -0.204572 -0.978836 -0.005548
-0.035002 0.052861 -0.022804 -0.730096 0.683337 -0.003086
0.032922 -0.044719 0.073759 0.934305 -0.356267 0.012133
0.036189 -0.035938 -0.113913 0.982223 -0.187517 -0.008629
0.040437 -0.012121 -0.000383 0.978203 -0.207628 0.003016
-0.040415 0.031923 -0.078946 -0.968253 0.249527 -0.014905
-0.015691 -0.039295 -0.092746 -0.208805 -0.977956 -0.001273
-0.044578 -0.001578 -0.119454 -0.042554 0.013663 -0.999001
0.024709 0.040912 -0.053663 0.225453 0.974225 -0.007570
-0.010574 0.049118 -0.116470 0.260711 0.964388 0.044569
0.002242 -0.043317 -0.028544 -0.206192 -0.978509 -0.002394
0.024335 0.040706 0.001207 0.216158 0.976302 0.010505
0.011742 0.043873 -0.065166 0.230725 0.973016 0.002378
-0.039269 -0.034233 -0.114893 -0.197234 -0.980294 -0.011047
-0.034082 -0.000024 -0.119536 0.003455 0.003214 -0.999989
0.022837 0.033127 -0.119869 -0.003212 -0.001558 -0.999994
-0.009129 -0.016817 0.084855 0.002590 -0.003884 0.999989
0.042059 0.037130 -0.088188 0.207190 0.978298 -0.002261
0.011027 0.044152 -0.117261 0.214707 0.976659 0.006113
-0.043622 0.016532 -0.117832 -0.978948 0.193183 -0.065883
0.027610 0.015948 -0.119902 -0.005023 -0.009490 -0.999942
0.036998 -0.030967 -0.099175 0.978307 -0.207003 0.008055
0.038545 -0.018330 0.074602 0.983724 -0.179285 0.012028
-0.025760 0.052777 -0.116450 0.231648 0.972758 -0.009026
0.010159 -0.044692 -0.073172 -0.201248 -0.979529 -0.004734
0.034455 -0.039750 0.026888 0.978452 -0.205917 0.015154
-0.035874 0.051234 -0.058523 -0.901791 0.432148 -0.004608
-0.034138 0.053535 0.004305 -0.408780 0.912484 0.016460
-0.046808 0.001629 -0.089775 -0.981185 0.192631 -0.013002
-0.041180 0.028866 -0.090023 -0.972006 0.234843 -0.007287
0.045940 0.011291 -0.094765 0.977237 -0.212068 0.005928
0.008352 0.044584 -0.037375 0.226684 0.973937 0.007786
0.007322 -0.044402 -0.030471 -0.199926 -0.979798 -0.005153
0.049697 0.032165 -0.005901 0.991802 0.127492 -0.008661
0.048530 0.035136 0.001982 0.647879 0.761653 0.011769
0.049298 0.032921 0.049115 0.974026 0.225236 0.023300
-0.043982 0.019406 0.031621 -0.976485 0.215536 -0.004710
0.033273 -0.045375 0.007854 0.914232 -0.404900 0.015318
0.048726 0.025639 0.013392 0.976079 -0.217383 -0.003703
0.043714 0.005279 0.061856 0.973935 -0.226760 0.005597
0.023869 -0.048186 0.047428 -0.199845 -0.979817 -0.004476
0.019137 -0.022648 -0.119533 -0.004651 0.001443 -0.999988
0.043255 0.036635 -0.032461 0.208188 0.978088 -0.000933
0.027137 -0.003774 -0.119638 -0.008305 -0.005077 -0.999953
0.047447 0.022794 0.084650 0.719618 -0.362380 0.592310
0.049045 0.034135 0.020556 0.915265 0.402619 -0.013709
0.045336 0.008759 -0.070015 0.976134 -0.217113 0.004984
-0.026771 -0.037393 0.014916 -0.203389 -0.979060 -0.008671
-0.052634 -0.027144 -0.029395 -0.998713 -0.050594 -0.003669
-0.031468 0.004254 -0.119408 0.005415 0.004859 -0.999974
-0.037420 0.046682 0.051115 -0.965558 0.259850 -0.013279
0.047241 0.015110 -0.119421 0.842768 -0.240597 -0.481514
-0.036478 0.039847 -0.119972 -0.047452 0.009655 -0.998827
0.023332 -0.047401 -0.082364 -0.201266 -0.979535 0.001503
-0.038356 0.043230 0.084407 -0.780209 0.177538 0.599796
0.028383 -0.023176 0.085232 0.007631 0.003454 0.999965
0.046563 0.016184 0.001667 0.975650 -0.219317 0.002761
0.037238 -0.028017 -0.035690 0.980978 -0.194031 0.005931
-0.040125 0.033004 -0.095710 -0.972617 0.232364 -0.004814
0.045302 0.036024 -0.000880 0.245614 0.969334 0.008026
-0.036666 0.048884 0.040943 -0.952022 0.306004 -0.003988
-0.018538 0.050612 0.016591 0.219260 0.975460 0.020083
0.045989 0.011064 -0.100705 0.975531 -0.219219 0.016784
-0.047335 -0.000354 -0.060825 -0.981184 0.192220 -0.018131
0.044939 0.010871 0.073179 0.973196 -0.228919 0.022048
0.029572 0.039409 0.007852 0.233102 0.972415 0.008504
-0.050374 -0.011620 0.047125 -0.981626 0.190600 -0.009028
0.003644 0.045903 -0.081475 0.230421 0.973087 0.002982
0.003830 0.033015 0.084098 -0.033245 0.073136 0.996768
0.042080 -0.004666 -0.013310 0.977629 -0.210333 0.001522
-0.046066 0.005225 -0.090974 -0.981966 0.188592 -0.013245
0.042096 -0.004113 0.010291 0.978426 -0.206511 0.005954
-0.009820 -0.041193 0.043285 -0.212504 -0.977153 -0.003796
0.040760 -0.010799 -0.004769 0.977726 -0.209794 0.006205
0.028340 -0.049016 0.028798 0.051351 -0.998643 -0.008730
0.035266 0.038078 0.015894 0.214162 0.976767 0.007795
-0.032135 -0.036671 0.071482 -0.209819 -0.977731 -0.004250
-0.021498 0.051464 -0.045378 0.231544 0.972808 0.005708
0.043509 0.001964 -0.008252 0.974784 -0.222760 0.013174
0.039029 -0.021752 -0.119599 0.647547 -0.101688 -0.755211
-0.043874 0.017009 -0.076989 -0.981365 0.192145 -0.001603
-0.028983 0.053300 -0.098144 0.258184 0.965677 0.028458
-0.032934 0.054060 0.001752 -0.146541 0.989050 0.017502
-0.050258 -0.022044 -0.119770 -0.397349 0.074655 -0.914626
0.030364 0.039460 -0.024393 0.229522 0.973302 -0.001559
0.008943 -0.010720 -0.119526 0.005474 -0.005190 -0.999972
-0.006834 0.000693 0.085111 0.060944 -0.053251 0.996720
0.028849 -0.048791 0.077080 0.267669 -0.962911 0.033988
0.043293 0.036747 -0.065647 0.210971 0.977471 0.006434
-0.009897 0.014414 -0.119638 0.002926 -0.008650 -0.999958
0.049190 0.034779 -0.062275 0.785854 0.618411 0.000880
-0.003509 -0.042503 0.043722 -0.202429 -0.979260 -0.008514
0.012825 0.019966 0.085200 -0.276916 -0.089361 0.956730
0.033005 -0.035793 -0.119733 -0.008209 0.023641 -0.999687
-0.011878 -0.040217 -0.055680 -0.221720 -0.975093 -0.005813
-0.012863 0.049390 0.006592 0.225423 0.974257 0.002627
-0.005131 -0.041442 -0.112630 -0.206438 -0.978344 -0.015021
0.009836 0.044230 -0.014520 0.214730 0.976645 0.007411
-0.044268 0.014219 -0.098747 -0.982259 0.187057 -0.013284
0.018124 -0.046298 -0.086483 -0.205237 -0.978711 -0.001573
0.031193 -0.047945 0.001022 0.580557 -0.814177 -0.008336
0.002148 -0.043345 -0.014534 -0.200288 -0.979732 -0.003043
0.029622 -0.048761 -0.029673 0.227095 -0.973383 0.030874
-0.051163 -0.031331 -0.036698 -0.808133 -0.588886 0.011559
0.041399 -0.008508 -0.039177 0.979903 -0.199452 0.003109
-0.051625 -0.021210 -0.023232 -0.985030 0.172379 -0.001048
-0.051579 -0.020208 0.084518 -0.531007 0.097781 0.841707
-0.045170 0.008603 -0.114372 -0.979992 0.198827 -0.009124
-0.034935 0.052800 0.033258 -0.734286 0.678834 -0.002977
-0.049700 -0.012690 -0.062928 -0.984144 0.176142 -0.020825
-0.041398 0.030692 0.084292 -0.736566 0.108757 0.667565
0.044404 0.021431 -0.119942 -0.020206 0.011208 -0.999733
0.047907 0.022062 -0.011649 0.976928 -0.213510 0.005023
0.026803 -0.032696 0.085336 0.002829 -0.010241 0.999944
0.021393 0.008547 0.085227 -0.032849 0.011803 0.999391
0.037825 0.037735 -0.006873 0.210217 0.977619 0.008379
-0.048961 -0.009158 -0.069967 -0.981421 0.191740 -0.006961
-0.002943 0.047494 -0.089413 0.216757 0.976092 -0.016142
0.031387 0.038900 0.028462 0.225490 0.974243 0.002332
0.015139 0.018353 0.084768 -0.082180 -0.090610 0.992490
0.018461 0.042313 -0.119720 0.188093 0.675007 -0.713433
-0.018935 -0.038786 0.082748 -0.223305 -0.972491 0.066307
-0.011160 0.048683 0.061636 0.224696 0.974387 0.008981
0.009700 -0.045440 0.078163 -0.238927 -0.970862 -0.018433
-0.031530 0.035393 -0.119838 0.002088 -0.005905 -0.999980
0.013317 0.042860 0.083138 0.215093 0.974589 0.062550
-0.032423 0.053878 -0.061276 -0.123524 0.991721 0.035102
0.045483 0.011837 0.035887 0.977105 -0.212597 0.008260
0.041553 0.036979 -0.012062 0.209038 0.977824 0.012762
-0.025062 0.029289 -0.119871 0.000545 -0.013010 -0.999915
-0.048043 -0.003023 -0.046688 -0.982183 0.187756 -0.007975
-0.050103 -0.011467 0.014905 -0.982739 0.184899 -0.005981
-0.004637 0.047616 -0.021807 0.221983 0.975050 -0.000271
-0.009876 0.000904 0.084955 -0.078695 0.044495 0.995905
0.043255 -0.000635 -0.076552 0.975346 -0.220670 0.002141
-0.053148 -0.026030 0.059317 -0.995999 0.089034 -0.007674
0.033745 -0.042431 0.036134 0.972609 -0.232319 0.007699
-0.047973 -0.000364 0.020931 -0.980922 0.194381 -0.002885
-0.020661 0.050801 0.079708 0.238851 0.970977 0.012429
-0.003659 -0.042120 -0.014679 -0.207956 -0.978138 -0.001080
0.044916 0.007874 -0.025770 0.977790 -0.209528 0.005063
-0.047659 -0.020006 -0.119688 0.008033 0.018279 -0.999801
0.037061 -0.031915 -0.118287 0.975859 -0.217508 -0.019734
-0.048073 -0.002862 -0.038275 -0.981920 0.188969 -0.011090
-0.038609 0.041825 0.058610 -0.969970 0.243205 -0.002922
-0.045359 0.010914 -0.049629 -0.980279 0.197505 -0.006698
-0.026369 -0.037035 -0.102213 -0.200548 -0.979641 -0.009161
-0.034806 0.053026 -0.019411 -0.687396 0.725823 0.025831
-0.049573 -0.008672 0.019709 -0.978510 0.206198 -0.000977
0.045304 0.035673 0.084756 0.143700 0.775717 0.614502
0.004716 -0.043514 -0.080342 -0.194912 -0.980819 0.001679
-0.014591 0.049820 0.012065 0.231775 0.972732 0.008516
0.046730 0.030872 0.085232 0.024720 -0.025050 0.999381
0.038347 -0.023933 -0.078437 0.980284 -0.197553 0.003991
0.036151 -0.029499 0.071593 0.980469 -0.196604 0.005245
0.029405 0.039412 0.015415 0.231029 0.972898 0.009715
0.045616 0.012399 0.027734 0.977227 -0.212071 0.007229
-0.006574 0.028496 -0.119835 -0.000892 -0.006794 -0.999977
-0.021513 0.051738 -0.116757 0.238448 0.970244 0.042056
-0.019345 0.050920 -0.102870 0.247264 0.968708 0.021589
-0.040398 0.031329 -0.107552 -0.974787 0.223058 -0.005981
0.048336 0.021451 -0.116022 0.976156 -0.215557 0.025570
0.049124 0.028383 0.049685 0.978910 -0.204159 0.007327
-0.049249 -0.006919 0.038597 -0.979855 0.199478 -0.009625
-0.052938 -0.028884 0.059584 -0.963914 -0.266148 -0.005889
0.032050 -0.036651 0.085248 0.004763 0.023418 0.999714
0.037552 -0.023940 0.044406 0.975113 -0.221681 0.003422
-0.051925 -0.024582 -0.059090 -0.984982 0.170276 -0.028575
0.034144 0.038844 -0.106806 0.223239 0.974762 -0.001997
0.034213 -0.044394 -0.110883 0.921454 -0.388346 -0.010494
-0.034884 0.052701 -0.068888 -0.756378 0.653826 -0.020101
-0.007666 0.048305 -0.116870 0.242945 0.969787 0.022168
0.006684 -0.044677 0.044043 -0.205975 -0.978546 -0.004705
0.042914 -0.001880 -0.067032 0.976465 -0.215668 0.001861
-0.034915 0.052876 0.017873 -0.657578 0.753129 0.019680
-0.042458 -0.034231 0.019719 -0.202907 -0.979162 -0.008454
-0.024657 0.052017 0.020313 0.230448 0.972922 0.017788
0.022128 0.041442 -0.032737 0.233791 0.972283 0.002858
-0.012428 -0.040292 -0.013619 -0.207475 -0.978240 -0.001157
0.042895 0.036393 0.059256 0.213042 0.977035 0.003958
-0.051639 -0.029599 -0.073781 -0.949404 -0.313783 -0.013128
0.048816 0.034619 0.013225 0.806091 0.591667 0.012126
-0.037783 0.044770 -0.036324 -0.968756 0.247938 -0.006292
0.016941 -0.009926 0.085015 0.034111 0.029520 0.998982
-0.020660 0.050848 0.074953 0.239262 0.970942 0.004989
-0.028887 0.001612 0.084445 0.058111 -0.057291 0.996665
0.019289 0.041677 0.059461 0.228242 0.973539 0.011248
-0.018483 -0.004446 0.085139 0.006441 -0.006908 0.999955
0.037678 -0.027470 -0.091072 0.979841 -0.199756 0.002898
-0.031199 -0.036713 0.044487 -0.203198 -0.979128 -0.004282
-0.039000 0.039661 0.006325 -0.971042 0.238863 0.004653
0.043352 -0.000009 -0.061604 0.975369 -0.220546 0.003758
-0.033154 0.053939 0.037902 -0.156873 0.987587 -0.007977
-0.039450 0.035712 -0.083443 -0.971275 0.237736 0.010316
-0.010203 0.024765 -0.119812 -0.001504 -0.004638 -0.999988
-0.036034 0.051078 -0.006977 -0.910781 0.412889 -0.000066
-0.004470 -0.008418 0.085196 0.016861 0.002260 0.999855
-0.043394 -0.005209 0.084754 -0.024846 -0.028342 0.999289
0.029200 -0.048939 0.011139 0.138824 -0.990316 0.001176
0.012761 0.043083 0.068048 0.228928 0.973398 0.009439
0.037424 -0.028357 -0.081940 0.979137 -0.203156 0.004387
0.048140 0.035128 0.027237 0.494272 0.868347 0.040851
0.010439 -0.044626 -0.107228 -0.188711 -0.981985 -0.009672
-0.025111 -0.037341 -0.054755 -0.204353 -0.978885 -0.004995
-0.033097 0.054075 -0.012369 -0.197934 0.980213 0.002051
0.045659 0.013313 0.084607 0.893188 -0.216354 0.394216
0.040439 -0.013388 -0.052767 0.980494 -0.196545 -0.001531
0.049455 0.031140 0.071634 0.999647 0.026383 0.002977
-0.013971 0.050073 -0.117221 0.199889 0.979784 -0.008171
0.040217 0.027214 0.084659 -0.041605 -0.039264 0.998362
0.049745 0.027673 -0.106712 0.980699 -0.195414 0.006494
-0.036161 0.050011 -0.079617 -0.937066 0.348886 0.013651
-0.051174 -0.028132 -0.119815 -0.673183 -0.105923 -0.731850
0.037047 -0.028578 -0.019334 0.979353 -0.202010 0.007741
-0.049275 -0.013843 -0.119324 -0.795772 0.190658 -0.574801
-0.014301 0.019020 0.084571 0.319871 0.062518 0.945396
0.033878 0.038344 0.018540 0.221075 0.975233 0.006841
0.001731 -0.043721 0.082192 -0.186102 -0.981662 0.041292
0.049083 0.035194 -0.073048 0.712867 0.701171 0.013409
-0.044448 0.014026 -0.062753 -0.980294 0.195046 -0.031322
-0.046067 0.004538 -0.103220 -0.982339 0.186563 -0.014296
-0.047684 0.003004 0.081965 -0.974518 0.219824 0.044634
0.036094 -0.019989 -0.119608 -0.006951 -0.002554 -0.999973
0.045708 0.012304 0.005781 0.977929 -0.208937 -0.000239
-0.020144 0.050820 0.028537 0.227045 0.973875 0.004338
0.049449 0.027779 -0.077817 0.979779 -0.200062 0.002927
-0.041766 -0.033994 -0.048434 -0.202848 -0.979209 -0.001176
-0.047296 -0.033164 0.018003 -0.238367 -0.971087 -0.013052
0.025314 0.024551 0.084520 -0.031295 -0.036334 0.998850
0.020899 0.015152 -0.119849 -0.008512 -0.016002 -0.999836
-0.050598 -0.019207 -0.096428 -0.983543 0.180676 -0.000059
-0.051907 -0.022466 -0.013576 -0.983244 0.181848 -0.012734
0.039831 -0.015773 -0.026354 0.978633 -0.205402 0.009340
0.044465 0.036009 0.035012 0.207081 0.978320 0.002759
0.048841 0.034655 -0.004598 0.796530 0.601303 -0.063047
0.030781 -0.048075 0.062453 0.614970 -0.788404 0.015204
-0.042644 -0.034297 0.032755 -0.198346 -0.980078 -0.010288
0.014441 -0.036115 0.085120 -0.007165 0.037446 0.999273
-0.046677 0.006865 0.048617 -0.980880 0.194119 -0.013873
-0.053031 -0.028393 0.050957 -0.985734 -0.167715 -0.014115
0.008467 -0.044624 -0.023014 -0.193209 -0.981147 -0.004585
0.028849 -0.048791 0.077080 0.267669 -0.962911 0.033988
-0.040224 -0.013695 0.084791 -0.005690 0.025661 0.999655
-0.015691 -0.039295 -0.092746 -0.208805 -0.977956 -0.001273
-0.029268 0.053375 -0.064136 0.208028 0.978059 0.011149
-0.050074 -0.032204 -0.039924 -0.405406 -0.908317 -0.102984
0.013722 0.035550 0.085278 0.030482 0.016357 0.999401
-0.034897 0.052378 -0.079820 -0.749429 0.661946 0.013571
-0.011523 -0.037817 0.085068 -0.025359 -0.030729 0.999206
-0.037231 -0.034913 -0.053627 -0.193521 -0.981088 -0.003978
0.029405 0.039412 0.015415 0.231029 0.972898 0.009715
0.031769 -0.047574 -0.029459 0.669154 -0.743114 0.003810
-0.003344 0.038744 0.085036 -0.071109 -0.011493 0.997402
0.027204 0.007715 -0.119731 -0.009167 -0.019029 -0.999777
-0.044644 0.016403 0.036771 -0.978789 0.204799 -0.005490
0.043078 -0.000175 -0.048909 0.971572 -0.236656 0.006522
-0.017922 0.050331 0.045625 0.226513 0.974007 0.001350
0.026319 -0.041521 -0.119770 -0.004811 0.020864 -0.999771
-0.049246 -0.006000 0.051498 -0.981619 0.190783 -0.005027
-0.037073 0.047123 -0.062935 -0.969821 0.243677 -0.008264
0.048726 0.025639 0.013392 0.976079 -0.217383 -0.003703
-0.049370 -0.013365 -0.117175 -0.981779 0.179246 -0.063090
0.018444 0.017821 0.085485 0.012714 -0.032363 0.999395
0.036559 0.038298 -0.103520 0.220562 0.975364 0.004272
-0.039231 0.038878 -0.014603 -0.970668 0.240425 0.000256
0.038368 -0.019174 0.077889 0.983632 -0.179692 0.013393
-0.049700 -0.012690 -0.062928 -0.984144 0.176142 -0.020825
0.013407 0.021369 -0.119871 -0.005478 -0.009692 -0.999938
0.022423 0.029648 0.085445 -0.192103 -0.035716 0.980725
0.046940 0.017762 0.005034 0.976216 -0.216801 -0.000167
0.006283 -0.007007 0.085052 -0.154163 0.067225 0.985756
-0.046600 0.001236 -0.117520 -0.978684 0.189196 -0.079893
-0.006877 0.003692 0.085213 -0.043420 0.013266 0.998969
-0.005188 0.005782 0.085246 0.013832 0.024066 0.999615
0.046489 0.016246 0.029562 0.973175 -0.230050 0.002540
0.022563 -0.047679 0.001523 -0.198435 -0.980110 -0.002845
0.019120 0.042195 -0.040902 0.222499 0.974928 0.003204
-0.013038 0.049459 -0.029608 0.231493 0.972836 0.000797
-0.049689 -0.009547 0.005528 -0.981434 0.191700 -0.006128
-0.046057 0.008171 -0.024401 -0.982543 0.185936 -0.006020
0.050488 0.031773 -0.111929 0.999051 0.042445 0.009803
0.013961 -0.047444 0.082429 0.004212 -0.995377 0.095951
0.033312 -0.043564 0.060807 0.956522 -0.291562 0.007534
0.014251 0.042875 0.050731 0.227929 0.973666 0.004840
-0.035659 -0.035181 -0.060620 -0.186472 -0.982460 0.000521
-0.008504 0.034568 -0.119827 0.000968 0.009832 -0.999951
0.030455 -0.029940 -0.119648 -0.013941 0.011396 -0.999838
0.008464 -0.027496 0.084997 -0.052054 0.006451 0.998623
0.038814 0.006901 -0.119833 -0.018950 -0.026447 -0.999471
0.017470 -0.046568 -0.008791 -0.202705 -0.979201 -0.008728
0.048626 0.025718 0.036473 0.974196 -0.225694 0.002310
-0.014180 0.047050 0.084479 0.150149 0.064796 0.986538
0.019951 -0.047494 0.065335 -0.202016 -0.979363 -0.006114
-0.035045 0.052757 0.047452 -0.735818 0.677148 0.006499
0.000463 -0.023884 0.084886 0.047266 -0.021358 0.998654
-0.021520 0.051468 -0.016864 0.225462 0.974249 -0.002249
-0.051101 -0.031655 -0.021932 -0.680836 -0.732419 0.004959
0.029728 0.039048 0.082530 0.233841 0.971263 0.044355
-0.045916 0.006563 -0.066731 -0.984010 0.177758 0.011279
-0.029605 -0.036610 -0.020885 -0.202835 -0.979206 -0.003607
0.013619 -0.045555 -0.047070 -0.206639 -0.978394 -0.006707
0.039139 -0.019416 -0.032632 0.976983 -0.213275 0.004347
0.049054 0.034677 -0.030830 0.812245 0.583280 0.006462
0.046884 0.018151 0.041344 0.974771 -0.223006 0.009457
-0.038609 0.041825 0.058610 -0.969970 0.243205 -0.002922
0.030181 0.039746 -0.077326 0.217733 0.976005 -0.002375
0.049376 0.028615 -0.006141 0.986166 -0.165750 0.001839
-0.051109 -0.031331 -0.039739 -0.809320 -0.587212 -0.013522
-0.020089 -0.038748 -0.002751 -0.205544 -0.978632 -0.005517
-0.006024 -0.041650 -0.033099 -0.203324 -0.979109 -0.002042
-0.042078 0.028491 0.068861 -0.972462 0.232907 -0.008470
0.027947 0.003581 -0.119697 -0.010731 -0.007831 -0.999912
-0.029894 -0.037119 0.063243 -0.198336 -0.980121 -0.005087
-0.049446 -0.032808 0.048759 -0.400963 -0.915855 0.020914
-0.050298 -0.032260 0.008115 -0.454396 -0.890763 0.008083
-0.046733 0.006145 0.040337 -0.981712 0.190175 -0.008640
0.005587 0.045294 -0.033744 0.233428 0.972373 0.001727
-0.015562 0.049608 0.078054 0.213967 0.976773 0.011541
-0.046666 -0.032317 -0.119828 -0.184466 -0.657217 -0.730779
0.008522 -0.044236 -0.112697 -0.196429 -0.980518 -0.000957
-0.027060 0.009522 0.085008 0.071303 0.011992 0.997383
-0.026585 0.052635 -0.035286 0.222012 0.975011 -0.008056
-0.045976 -0.007086 0.084474 0.024188 -0.010868 0.999648
0.035517 0.015948 0.085559 0.004631 -0.025563 0.999662
0.000023 0.034151 -0.119825 0.005011 -0.002713 -0.999984
-0.052069 -0.030341 0.036206 -0.873532 -0.486500 -0.016142
-0.040210 -0.034290 -0.080891 -0.194113 -0.980979 0.000082
0.039178 -0.019356 -0.054418 0.977902 -0.209002 -0.005041
0.040884 -0.013207 -0.119542 0.736711 -0.184457 -0.650563
0.043930 0.001907 -0.117177 0.975916 -0.211803 0.052226
0.041373 -0.007746 -0.027566 0.979937 -0.197708 0.025215
0.027560 -0.048792 0.013159 -0.109856 -0.993853 -0.013680
-0.037109 0.048332 0.082213 -0.955997 0.284125 0.073092
-0.002118 0.046877 0.018573 0.225535 0.974155 0.012478
0.046037 0.036110 -0.055463 0.226343 0.973987 0.010837
0.034534 -0.040779 -0.018060 0.976029 -0.217394 0.010353
-0.011160 0.048683 0.061636 0.224696 0.974387 0.008981
0.032479 -0.047089 -0.089440 0.677120 -0.735869 0.002218
0.038479 -0.023711 -0.111638 0.980749 -0.195260 0.002372
-0.020928 0.051264 0.003230 0.223873 0.974606 0.004874
0.049079 0.031798 0.085065 0.703052 0.162802 0.692253
0.000600 0.001092 0.085077 0.026225 -0.000469 0.999656
0.001190 0.045311 0.084831 0.160232 0.651436 0.741591
-0.035014 0.052802 0.043498 -0.709127 0.704210 -0.035045
-0.041915 0.022811 -0.119832 -0.558203 0.081516 -0.825690
0.041579 0.037023 -0.025593 0.210250 0.977648 -0.000554
-0.020810 0.051273 -0.093933 0.230463 0.973039 -0.009077
0.016561 0.042556 0.007721 0.228969 0.973433 0.001333
-0.052170 -0.029865 0.006049 -0.925089 -0.379406 -0.016197
0.035063 -0.040345 -0.076936 0.980717 -0.195267 0.008015
0.019137 -0.022648 -0.119533 -0.004651 0.001443 -0.999988
0.041710 0.000933 -0.119766 0.016753 0.015984 -0.999732
0.048373 0.022892 -0.076827 0.976918 -0.213611 -0.000749
-0.031530 0.035393 -0.119838 0.002088 -0.005905 -0.999980
-0.001959 0.046482 0.082891 0.226067 0.970186 0.087371
-0.052759 -0.027480 -0.005261 -0.994377 -0.105196 -0.012149
0.022041 0.019254 0.084605 0.015413 -0.086823 0.996104
-0.022728 -0.037739 -0.073461 -0.201601 -0.979429 -0.008751
0.046483 0.026957 0.085046 0.028716 -0.064864 0.997481
0.031710 -0.047697 -0.076427 0.533749 -0.845640 -0.002073
-0.009143 0.030648 -0.119851 -0.001162 -0.006284 -0.999980
-0.033524 0.053860 0.015105 -0.288506 0.957437 0.008892
0.003180 0.040488 0.084732 -0.063061 -0.065851 0.995835
-0.046872 -0.033337 0.023995 -0.235893 -0.971644 -0.016228
0.027232 0.040419 -0.075300 0.222096 0.975024 -0.001365
-0.012606 0.049127 0.024827 0.219262 0.975613 0.010145
-0.034897 0.052861 -0.028332 -0.684796 0.728365 -0.023204
-0.046351 0.006434 -0.029233 -0.981262 0.192512 -0.007966
-0.039955 0.033154 -0.112125 -0.974406 0.224679 -0.007197
0.007875 0.044861 -0.067370 0.234327 0.972155 0.002291
0.035063 -0.040345 -0.076936 0.980717 -0.195267 0.008015
-0.032187 0.018429 -0.119758 0.002937 -0.023756 -0.999713
-0.023116 0.051563 0.031362 0.232027 0.972707 -0.002173
0.012262 -0.017000 0.085033 0.012048 -0.001564 0.999926
0.001603 0.046326 -0.088654 0.225267 0.974297 0.000936
-0.051473 -0.024748 -0.107527 -0.990693 0.135822 -0.008921
0.034050 -0.039629 0.085553 0.638548 -0.164894 0.751709
0.033580 -0.045008 -0.036068 0.911502 -0.411045 0.014397
-0.014512 -0.039055 -0.119777 -0.187494 -0.611776 -0.768490
0.029934 -0.017484 0.085279 -0.019706 -0.008491 0.999770
-0.029333 0.039261 -0.119951 0.001745 0.005352 -0.999984
0.045194 0.007876 -0.082704 0.977750 -0.209692 0.005860
0.046971 0.036017 -0.072015 0.275166 0.961338 0.010628
-0.044614 0.018075 0.083292 -0.960806 0.176297 0.213944
-0.034558 -0.035567 -0.013297 -0.207746 -0.978175 -0.003928
0.009287 -0.029830 -0.119650 0.001323 0.015635 -0.999877
-0.019843 -0.038349 -0.109540 -0.209940 -0.977624 -0.013284
-0.020885 -0.038336 -0.043523 -0.202988 -0.979149 -0.007968
-0.045060 0.013715 0.003084 -0.980452 0.196753 -0.001496
-0.016904 0.036130 0.084284 0.145500 0.058063 0.987653
-0.000561 -0.042435 -0.102731 -0.195183 -0.980679 -0.013151
0.004997 0.045427 -0.017687 0.232975 0.972466 0.005654
-0.037955 -0.034234 -0.119728 -0.315473 -0.806477 -0.500072
-0.015386 0.027641 0.084735 0.188445 0.038695 0.981321
0.048989 0.023781 -0.119979 0.666865 -0.215468 -0.713347
-0.017076 -0.037882 -0.119969 -0.082887 -0.243673 -0.966309
-0.014265 0.005223 0.085074 -0.036833 0.056717 0.997711
0.010177 -0.015682 0.085286 -0.015321 0.014563 0.999777
0.033685 0.038439 0.011781 0.219144 0.975660 0.008007
-0.017256 0.050403 0.013676 0.218764 0.975682 0.013670
0.002657 0.045945 -0.111499 0.226828 0.973935 -0.000434
0.035366 0.038424 -0.059810 0.216587 0.976251 0.004971
-0.052876 -0.028270 0.024264 -0.984973 -0.172674 -0.003474
0.033198 -0.043457 0.077603 0.961448 -0.274453 0.017151
-0.051066 -0.031304 -0.049133 -0.783641 -0.621167 0.007636
-0.049896 -0.032220 -0.052591 -0.438837 -0.897987 -0.032279
-0.002180 -0.042009 -0.113119 -0.201291 -0.979447 -0.012895
-0.045226 0.012342 -0.027567 -0.981255 0.192648 -0.005062
-0.042295 0.026361 -0.011873 -0.972944 0.231028 0.002340
-0.049696 -0.032571 0.020364 -0.407219 -0.913297 -0.007851
0.033317 -0.045157 0.020296 0.933402 -0.358683 0.010332
0.046878 0.035577 0.029526 0.341929 0.939701 0.006837
-0.051088 -0.031008 -0.060633 -0.801301 -0.598025 -0.016789
0.041278 -0.008503 -0.009954 0.979420 -0.201810 0.003148
-0.025601 0.019192 0.084713 -0.143827 0.066531 0.987364
-0.025326 0.051980 0.066384 0.222881 0.974813 0.007920
0.044085 0.036690 -0.096831 0.203479 0.979058 -0.006450
-0.050012 -0.031477 -0.117591 -0.668769 -0.742698 -0.033878
0.011792 0.043506 0.045098 0.225345 0.974278 -0.001307
0.044636 0.036316 -0.037511 0.205974 0.978551 -0.003483
0.021000 -0.047263 -0.024821 -0.203096 -0.979158 -0.001050
-0.036055 0.050937 -0.010776 -0.926173 0.377094 -0.001587
0.020373 0.041451 0.050049 0.230736 0.973016 0.000153
0.049011 0.034816 -0.032662 0.790412 0.612551 0.005489
0.032479 -0.047089 -0.089440 0.677120 -0.735869 0.002218
-0.009491 0.048681 0.004223 0.211609 0.977353 0.001909
-0.020019 -0.038482 -0.050318 -0.205428 -0.978671 0.001198
0.045723 0.013989 0.055812 0.978892 -0.204294 0.005942
-0.039118 -0.003567 0.084786 0.016609 0.002940 0.999858
-0.047681 -0.022126 0.084681 0.026767 0.002783 0.999638
0.003491 -0.043768 0.010350 -0.200438 -0.979685 -0.006421
0.048689 0.025800 0.025914 0.974770 -0.223149 0.005281
-0.031342 -0.035968 -0.098025 -0.206836 -0.978349 -0.007190
0.047809 0.035744 -0.032537 0.418610 0.908142 0.006631
0.040276 0.036977 0.045927 0.213239 0.977000 0.000547
0.013572 0.042820 0.080751 0.220401 0.975399 0.004560
-0.011878 -0.040217 -0.055680 -0.221720 -0.975093 -0.005813
-0.048826 -0.005858 -0.017296 -0.981229 0.192838 -0.001936
0.039629 -0.013439 0.067246 0.979813 -0.199554 0.012004
-0.033332 0.054020 -0.002849 -0.241940 0.970291 -0.000637
0.036283 0.025868 0.085180 -0.012891 0.085305 0.996272
0.013365 -0.045543 -0.043621 -0.203297 -0.979099 -0.005969
0.016009 0.042834 -0.030537 0.229070 0.973404 -0.003420
-0.051107 -0.031415 -0.033433 -0.754277 -0.656391 0.014729
-0.051482 -0.024576 -0.102489 -0.987325 0.157569 -0.019010
-0.023483 0.051949 -0.046480 0.226760 0.973945 0.003232
0.027068 -0.030019 0.085179 0.017390 0.010201 0.999797
-0.037730 0.045968 0.076615 -0.967033 0.254315 -0.013111
0.033515 -0.045157 -0.032305 0.899457 -0.436937 0.007940
-0.011881 -0.040260 0.083417 -0.241746 -0.954859 0.172637
0.037408 -0.026328 -0.004094 0.978707 -0.205063 0.009008
0.019116 -0.047025 0.011322 -0.199443 -0.979895 -0.005369
0.029216 0.016344 0.085480 -0.089369 0.109579 0.989952
-0.038945 -0.028344 0.084776 -0.008210 -0.015295 0.999849
-0.019124 -0.039331 0.059252 -0.205408 -0.978631 -0.009403
-0.041218 0.031515 0.054658 -0.970971 0.239187 -0.002332
-0.048961 -0.009158 -0.069967 -0.981421 0.191740 -0.006961
0.034239 -0.040073 0.043964 0.979827 -0.199757 0.006079
-0.039350 0.030172 -0.119971 -0.131163 0.043518 -0.990405
-0.044042 0.016672 0.084411 -0.380635 0.127636 0.915875
-0.026746 0.052382 0.047810 0.227151 0.973858 0.001862
0.017113 0.023894 0.085111 -0.007555 0.024858 0.999662
0.027295 -0.047589 0.085329 -0.012075 -0.452850 0.891505
-0.046459 0.005722 -0.032093 -0.980428 0.196629 -0.009890
0.032159 0.038725 0.039748 0.216398 0.976305 -0.000943
0.002242 -0.043317 -0.028544 -0.206192 -0.978509 -0.002394
-0.033182 0.053599 0.083971 -0.063635 0.783537 0.618078
-0.020169 -0.038398 -0.097647 -0.218531 -0.975814 -0.005604
-0.051932 -0.022003 0.006554 -0.985780 0.167657 -0.011351
0.031130 -0.048021 0.010583 0.588065 -0.808639 -0.016815
-0.047641 0.000007 -0.027671 -0.982016 0.188721 -0.005332
0.025939 0.040515 -0.024479 0.235930 0.971760 0.004409
-0.004354 -0.041813 -0.064198 -0.204514 -0.978733 -0.015985
-0.052203 -0.029406 -0.020956 -0.951419 -0.306930 -0.024401
-0.023017 0.040964 0.084446 -0.134566 -0.073440 0.988179
0.038338 -0.023265 -0.057810 0.978518 -0.206098 0.005023
0.018345 -0.019164 0.084978 -0.004650 -0.007701 0.999960
-0.026368 -0.011400 0.084858 -0.008996 0.017878 0.999800
0.006737 0.044778 0.015444 0.231932 0.972666 0.011312
-0.051750 -0.026733 -0.118119 -0.994087 -0.020807 -0.106570
0.026319 -0.041521 -0.119770 -0.004811 0.020864 -0.999771
-0.009820 -0.040307 -0.119690 -0.108664 -0.789796 -0.603667
0.019035 -0.046812 -0.031585 -0.208084 -0.978095 -0.005650
0.020899 0.015152 -0.119849 -0.008512 -0.016002 -0.999836
-0.020570 0.051372 -0.069864 0.219680 0.975568 0.002629
-0.034298 -0.035548 -0.030032 -0.206103 -0.978511 -0.006184
-0.015691 -0.039295 -0.092746 -0.208805 -0.977956 -0.001273
0.014548 0.032277 0.084875 -0.041717 -0.024694 0.998824
0.022945 0.040999 0.013675 0.226654 0.973950 0.007089
-0.031140 -0.036025 -0.074841 -0.208851 -0.977947 -0.000103
-0.009785 -0.041234 0.078558 -0.284865 -0.958287 0.023190
-0.011700 0.010305 0.085291 -0.080724 -0.047133 0.995621
0.031356 -0.047442 0.083704 0.645905 -0.761871 0.048570
0.016714 -0.018996 -0.119562 -0.000789 -0.001307 -0.999999
0.042313 -0.003821 -0.020950 0.979170 -0.198907 -0.040778
0.044400 0.005647 -0.012095 0.976690 -0.214497 0.008197
-0.038927 0.040006 -0.037082 -0.971427 0.237269 -0.005763
-0.046736 -0.001937 -0.119393 -0.452475 0.078467 -0.888318
-0.050443 -0.015055 -0.036228 -0.982250 0.187206 -0.011810
-0.037567 0.043088 -0.115244 -0.970966 0.239071 0.008402
-0.032822 -0.035558 -0.104264 -0.203681 -0.979036 -0.001531
-0.035033 0.052701 -0.030630 -0.733409 0.679771 -0.004689
0.046677 0.023680 -0.120051 0.029528 -0.014187 -0.999463
-0.033276 -0.035632 -0.058875 -0.203052 -0.979162 -0.003293
-0.023773 -0.038009 0.009412 -0.204217 -0.978924 -0.001803
-0.046880 0.001756 -0.073836 -0.983559 0.180320 -0.009853
-0.036194 0.050149 -0.074914 -0.933477 0.357635 -0.026786
0.032823 0.029828 0.085461 -0.023827 0.014468 0.999611
-0.052880 -0.024531 0.071895 -0.987002 0.160698 -0.002006
0.028332 -0.048537 -0.066575 -0.089785 -0.995938 -0.006745
-0.050019 -0.015247 -0.079791 -0.984589 0.174438 -0.012510
0.031356 -0.047442 0.083704 0.645905 -0.761871 0.048570
0.024628 -0.048178 0.019308 -0.205624 -0.978623 -0.004089
-0.001274 -0.020546 0.084907 0.005680 0.023087 0.999717
0.047606 0.035617 -0.019553 0.418769 0.908069 0.006532
0.037275 -0.028658 -0.065069 0.980767 -0.195139 0.004001
-0.029716 0.032110 0.083974 0.092929 -0.095026 0.991128
-0.026413 0.052179 0.072225 0.227167 0.973853 0.002411
0.037157 0.037476 0.076052 0.201835 0.979389 0.007676
0.035363 -0.037317 -0.038148 0.979710 -0.200387 0.003547
0.047762 0.021232 -0.016236 0.977417 -0.211288 0.003564
0.049008 0.026501 -0.049950 0.976480 -0.215590 0.002751
-0.013037 -0.030378 -0.119639 -0.000931 0.011348 -0.999935
0.028170 -0.048774 -0.017737 -0.047377 -0.998667 0.020471
-0.035149 0.051887 -0.113130 -0.885098 0.465377 -0.005051
0.028129 0.036513 0.085132 -0.003373 -0.002860 0.999990
-0.034473 0.053446 0.066037 -0.474465 0.879868 0.026740
0.049349 0.034502 -0.067271 0.891823 0.452231 -0.011769
0.033795 -0.041241 0.075901 0.977523 -0.210645 0.008862
0.029755 -0.048521 -0.089247 0.165791 -0.985887 -0.023260
-0.043975 0.014940 -0.111335 -0.981550 0.190732 -0.013448
0.033839 -0.043535 -0.014138 0.961285 -0.275360 0.010427
-0.044535 0.016628 0.018682 -0.976661 0.214702 -0.005960
-0.049888 -0.032275 -0.046804 -0.466399 -0.884568 -0.003445
-0.012428 -0.040292 -0.013619 -0.207475 -0.978240 -0.001157
0.032335 -0.047200 -0.099938 0.677500 -0.735082 0.025468
-0.030102 -0.009854 -0.119519 0.003692 0.011139 -0.999931
-0.012793 0.028034 0.083769 -0.050223 -0.086418 0.994992
0.019035 -0.046812 -0.031585 -0.208084 -0.978095 -0.005650
-0.049091 -0.008225 -0.044148 -0.981632 0.190385 -0.012338
-0.016253 -0.039059 -0.108348 -0.204982 -0.978670 -0.013691
0.035144 -0.036699 0.012622 0.981075 -0.193501 0.006988
0.001500 0.046210 -0.029308 0.222349 0.974939 -0.007476
0.035526 0.037947 0.060809 0.207376 0.978226 0.008322
0.021724 -0.015125 0.085275 0.057325 -0.043990 0.997386
0.034145 -0.039374 0.071559 0.980502 -0.196369 0.007471
0.028584 -0.049106 0.034915 0.094393 -0.995481 0.010406
0.050001 0.029071 -0.104190 0.981095 -0.193240 0.010568
-0.037934 0.042012 -0.117909 -0.971024 0.228436 -0.070207
0.035812 -0.036980 -0.087746 0.981615 -0.190813 0.004706
-0.000793 0.046701 -0.000599 0.224926 0.974375 0.001341
0.035918 -0.032643 0.023438 0.979741 -0.200118 0.007779
-0.013885 0.049591 0.015125 0.231355 0.972748 0.015378
0.033521 -0.042874 0.053099 0.966994 -0.254724 0.006242
-0.008221 -0.040836 -0.099478 -0.207085 -0.978282 -0.008961
-0.042950 0.021094 -0.093074 -0.977488 0.210736 -0.010392
-0.044524 0.012328 -0.104266 -0.981806 0.189401 -0.013579
0.039839 0.001273 0.085427 -0.024321 -0.027018 0.999339
0.029954 0.039686 -0.054157 0.226504 0.974007 0.002657
-0.051724 -0.020216 0.012890 -0.988159 0.153376 -0.004149
0.012618 0.008042 0.085351 0.001649 -0.054488 0.998513
-0.025342 0.048583 0.084891 -0.029207 0.008833 0.999534
-0.036147 0.050730 -0.050731 -0.921979 0.387240 -0.000482
0.034456 -0.042018 -0.040470 0.972093 -0.234520 0.006008
-0.033166 -0.035878 -0.018881 -0.210281 -0.977637 -0.002868
0.048111 0.035153 0.062400 0.588433 0.807125 0.047913
0.048621 0.035492 -0.067829 0.554476 0.831438 -0.035604
0.041737 -0.005255 -0.023733 0.979091 -0.202950 -0.013823
0.049756 0.029659 -0.057735 0.980211 -0.197938 0.002601
-0.008758 -0.040653 -0.110152 -0.206791 -0.978309 -0.012185
-0.012090 0.025342 0.083795 -0.217571 -0.055137 0.974486
-0.041379 -0.034048 -0.084273 -0.200149 -0.979765 -0.000951
-0.044643 -0.010031 0.084586 0.000340 0.013368 0.999911
-0.023309 0.051885 -0.042164 0.227062 0.973869 0.004657
0.037238 -0.027732 -0.027422 0.980192 -0.197765 0.010631
0.043864 0.004452 0.030972 0.974364 -0.224913 0.005319
-0.019537 0.050920 -0.097459 0.241714 0.970336 -0.004683
-0.012307 -0.039982 -0.107298 -0.212025 -0.977171 -0.013506
0.022316 -0.047767 0.028849 -0.191578 -0.981452 -0.007021
-0.036354 0.048283 -0.102229 -0.960702 0.277574 -0.002000
0.000302 0.046691 -0.092563 0.225833 0.974162 -0.002844
-0.018097 0.003181 0.084504 -0.022099 -0.026131 0.999414
-0.035001 0.052748 -0.039342 -0.697855 0.715675 -0.028419
0.049273 0.029336 0.057303 0.990222 -0.139434 0.004281
0.043124 0.000477 -0.002379 0.975237 -0.221160 -0.000007
-0.028909 -0.014739 0.084910 -0.012777 0.003291 0.999913
0.049214 0.025206 -0.109529 0.976533 -0.215367 0.000251
-0.051088 -0.031008 -0.060633 -0.801301 -0.598025 -0.016789
0.039730 -0.014480 0.031908 0.979854 -0.199597 0.006915
0.027129 0.014181 0.085543 -0.117376 0.144029 0.982588
0.032967 0.038877 -0.035510 0.226195 0.974076 0.003462
-0.007666 0.048305 -0.116870 0.242945 0.969787 0.022168
0.017937 0.026675 0.085372 0.109755 0.011645 0.993890
-0.001515 0.047134 -0.080531 0.225802 0.974149 0.006832
0.038743 -0.020074 0.010094 0.974720 -0.223277 0.008309
-0.000436 -0.042989 0.008846 -0.208400 -0.978008 -0.008287
-0.012675 0.049504 -0.052654 0.232424 0.972558 0.010483
-0.035677 0.051905 -0.026525 -0.867572 0.497289 -0.004755
-0.048917 -0.032449 -0.078711 -0.382059 -0.923970 -0.017601
0.047787 0.035803 -0.061154 0.407202 0.913337 0.001082
-0.021029 0.010934 0.084219 -0.101699 0.010622 0.994759
0.022917 0.041295 -0.064242 0.230750 0.972993 0.006312
0.040738 0.037215 -0.023198 0.213313 0.976977 -0.003641
-0.029045 -0.036696 -0.029835 -0.199595 -0.979874 -0.003058
-0.035039 0.028795 0.084380 -0.046227 0.021380 0.998702
0.039026 -0.019059 -0.007843 0.977923 -0.208907 0.004885
-0.036866 0.048160 -0.042672 -0.963928 0.266160 -0.001002
-0.001184 0.046827 -0.008193 0.220657 0.975344 0.003693
0.040890 -0.006425 0.085258 0.803977 -0.055590 0.592057
0.000751 -0.043581 0.072375 -0.207011 -0.978334 -0.002838
0.035750 -0.038274 -0.106851 0.980963 -0.193995 0.008747
-0.052507 -0.025004 -0.007681 -0.990248 0.139053 -0.008592
-0.000654 0.046799 -0.057675 0.215557 0.976491 0.000028
-0.023634 0.051981 -0.014496 0.226069 0.974111 0.000938
0.005562 -0.044213 -0.003902 -0.200234 -0.979719 -0.007491
-0.012563 0.048122 -0.119773 0.030207 0.110251 -0.993445
-0.001072 -0.042967 0.026357 -0.206152 -0.978445 -0.012109
0.032272 -0.047286 -0.077481 0.649016 -0.759939 -0.035657
-0.035721 0.050326 -0.115558 -0.941753 0.336286 -0.003696
0.012174 -0.038209 -0.119713 0.002918 0.021070 -0.999774
-0.051157 -0.031641 -0.004137 -0.710749 -0.702864 -0.028600
-0.030025 0.004984 0.085030 -0.023615 0.013887 0.999625
0.035559 -0.038974 -0.103392 0.978537 -0.205712 0.012130
0.032645 -0.046970 -0.115866 0.698480 -0.715555 0.010343
0.012168 0.032453 0.085279 0.021643 -0.061430 0.997877
0.019772 0.042075 -0.054077 0.230746 0.973014 -0.000421
0.025299 -0.010984 -0.119590 -0.005516 0.002154 -0.999982
0.005022 0.041541 -0.119813 -0.000761 0.001872 -0.999998
-0.048237 -0.015354 0.084660 -0.042782 0.056785 0.997469
-0.027925 -0.005832 0.084983 -0.053162 0.000294 0.998586
-0.050428 -0.010740 0.082950 -0.960974 0.201378 0.189671
0.032558 -0.007456 0.085489 0.003031 -0.028097 0.999601
-0.012446 -0.040299 -0.024824 -0.210720 -0.977535 -0.004614
0.016649 -0.033392 -0.119715 -0.002842 0.019776 -0.999800
-0.044703 -0.033388 -0.042683 -0.201289 -0.979525 -0.003563
-0.002157 -0.042455 -0.026716 -0.200880 -0.979588 -0.007360
-0.045320 0.011362 -0.042651 -0.981345 0.192215 -0.003919
0.030529 0.002666 -0.119729 -0.010568 -0.009166 -0.999902
0.004833 -0.043483 -0.106549 -0.191673 -0.981457 0.001672
-0.005449 -0.039650 -0.119957 -0.015912 -0.040795 -0.999041
0.046134 0.035988 -0.017036 0.276951 0.960867 -0.005673
-0.045634 0.010596 -0.012384 -0.981501 0.191414 -0.003972
0.020375 -0.010698 0.084901 -0.058310 0.031728 0.997794
0.014591 -0.045749 -0.040271 -0.198775 -0.980045 -0.000174
0.028546 0.033561 0.085102 -0.054021 -0.038600 0.997793
-0.052119 -0.027019 -0.076909 -0.999729 -0.021363 0.009195
0.031454 -0.047744 0.025761 0.673055 -0.739520 -0.010293
-0.040733 0.034181 0.076443 -0.969014 0.246707 -0.012133
-0.036133 0.050758 0.031742 -0.927126 0.374722 -0.004536
0.029321 -0.048502 -0.098587 0.088132 -0.996068 0.009016
0.038915 0.003956 0.085606 -0.025247 -0.006704 0.999659
0.000847 0.012927 -0.119601 -0.007421 -0.011625 -0.999905
-0.039908 0.036432 0.039301 -0.969520 0.244975 -0.004335
0.011488 0.017386 0.084120 -0.010586 0.177804 0.984009
-0.042549 0.025359 0.020699 -0.974217 0.225586 -0.003394
0.034427 -0.039331 -0.119654 0.635731 -0.143523 -0.758451
-0.008559 -0.041239 0.008896 -0.214953 -0.976579 -0.009444
0.042097 0.018112 0.085759 0.100255 0.048554 0.993776
-0.021555 0.051499 -0.089047 0.224214 0.974438 -0.014099
0.040064 -0.015275 -0.054919 0.979725 -0.200338 0.001703
0.044230 0.006417 0.041430 0.974540 -0.224067 0.008115
-0.035967 0.001919 0.084593 -0.021544 0.043405 0.998825
-0.008062 -0.040567 -0.119800 -0.159456 -0.678105 -0.717460
0.020125 -0.046671 -0.118053 -0.192554 -0.977061 -0.090966
0.029645 0.039838 -0.100356 0.223539 0.974693 0.001827
-0.025190 -0.037532 -0.011807 -0.207943 -0.978095 -0.009520
-0.025427 0.052377 -0.044526 0.215476 0.976490 0.006149
0.012642 -0.045739 0.028656 -0.200077 -0.979765 -0.005408
0.034205 -0.041782 -0.003633 0.973239 -0.229728 0.005558
-0.035093 0.052166 -0.085236 -0.816163 0.577755 -0.008757
-0.034163 0.042387 0.084155 -0.006057 0.007868 0.999951
-0.010669 0.049153 -0.094172 0.205272 0.978360 -0.025966
0.005488 -0.043874 -0.049523 -0.196214 -0.980548 -0.005030
-0.050034 -0.015351 -0.077425 -0.984912 0.172917 -0.006972
0.011988 -0.045777 0.055164 -0.205272 -0.978687 -0.005986
0.033346 -0.045356 -0.028551 0.896948 -0.442065 0.007908
0.024794 -0.048618 0.076106 -0.196547 -0.980462 0.007992
-0.012521 -0.006335 0.085156 -0.041186 -0.001694 0.999150
-0.005927 -0.041426 -0.096652 -0.204849 -0.978787 -0.003568
-0.028606 0.029015 0.083755 0.149303 0.045564 0.987741
0.001651 -0.041235 -0.119957 -0.027466 -0.040282 -0.998811
0.033629 -0.042697 0.040120 0.968996 -0.246933 0.008360
0.026314 -0.007251 -0.119639 -0.007711 -0.005321 -0.999956
-0.040705 0.030020 -0.105580 -0.974009 0.226118 -0.013316
0.016108 0.042510 0.046352 0.229236 0.973367 0.002625
-0.024844 0.052358 -0.082569 0.208880 0.977830 -0.014733
-0.050263 -0.032243 -0.011902 -0.475129 -0.879801 -0.014230
0.039325 -0.018842 -0.070707 0.980648 -0.195716 0.005022
-0.048595 -0.033068 0.045727 -0.310857 -0.950445 -0.004676
-0.043538 0.020756 0.009617 -0.974142 0.225862 0.005756
-0.042606 -0.033582 -0.112450 -0.204191 -0.978780 -0.017206
0.032347 -0.044996 -0.119993 0.046719 -0.002314 -0.998905
0.042988 0.036687 -0.017459 0.216417 0.976300 -0.001543
-0.044921 0.015027 0.031682 -0.979632 0.200794 -0.001420
0.047066 0.016931 -0.069524 0.978562 -0.205771 0.008661
0.030899 0.039597 -0.086389 0.221790 0.975094 0.000247
0.038130 0.007058 0.085586 0.009900 -0.007214 0.999925
0.029417 -0.008043 -0.119686 -0.011928 -0.007844 -0.999898
0.038420 -0.020523 0.043659 0.974515 -0.224290 0.003805
0.035653 -0.005314 -0.119698 -0.006536 0.005284 -0.999965
-0.005602 -0.042003 0.030682 -0.208149 -0.978082 -0.005499
0.028269 0.039613 0.034801 0.227449 0.973783 -0.003653
