-0.025462 -0.017854 0.006463 -0.999779 0.020747 0.003442
-0.020481 -0.018812 -0.016980 0.011803 -0.003431 -0.999924
0.026239 0.034762 0.029419 0.997767 0.023102 0.062670
0.025486 -0.011606 0.019045 0.999675 -0.020413 -0.015280
0.002899 0.018082 -0.016392 0.022432 -0.010976 -0.999688
0.010386 -0.030142 -0.017000 0.012289 0.035611 -0.999290
0.019322 -0.033859 0.032871 0.030158 -0.027067 0.999179
-0.007017 -0.037427 -0.015813 -0.001839 -0.952202 -0.305464
0.026205 0.034883 0.024416 0.996544 -0.079408 -0.024392
0.000465 0.027921 0.024811 -0.013503 -0.998377 -0.055321
0.016432 0.037222 -0.012831 0.050627 0.997068 0.057380
-0.022680 0.025196 -0.016906 -0.084050 -0.009569 -0.996416
0.013787 -0.038165 0.029737 -0.006764 -0.997969 -0.063343
-0.007081 0.034950 0.033102 -0.017103 -0.148681 0.988737
-0.000841 -0.037742 0.008342 0.006572 -0.999830 -0.017225
-0.025512 -0.032517 0.031006 -0.998240 -0.005457 0.059058
0.026073 0.035638 0.006450 0.988625 0.142731 -0.047421
-0.022276 0.001527 0.033498 -0.001140 0.003130 0.999994
-0.003863 0.022121 0.021078 0.056248 0.052449 0.997038
0.001990 -0.038626 0.032057 -0.006583 -0.985589 -0.169028
-0.024897 0.019032 -0.007687 -0.999836 -0.009461 -0.015430
0.023665 -0.000999 0.032668 0.123237 0.015250 0.992260
0.025758 0.010134 0.026435 0.999659 -0.026083 -0.001117
0.025733 0.014805 -0.016132 0.971795 -0.123269 -0.201046
0.025766 0.008696 0.014199 0.998598 -0.027501 -0.045224
0.024724 0.036905 -0.007258 0.201394 0.978364 0.047370
-0.007173 0.034759 -0.017006 -0.000566 -0.014421 -0.999896
0.005952 -0.023296 -0.016693 0.000454 0.027363 -0.999625
-0.026035 -0.032445 0.009060 -0.999191 -0.039942 0.004716
0.016524 -0.006178 -0.016437 -0.020649 0.003923 -0.999779
-0.016293 0.025985 -0.016851 0.014351 -0.012405 -0.999820
-0.017244 -0.038178 0.011048 0.014847 -0.999884 -0.003267
0.024829 -0.032902 0.032249 0.835417 -0.005861 0.549585
0.014359 -0.015099 -0.016504 0.001535 0.013794 -0.999904
-0.006447 0.023502 0.033013 0.396821 -0.119804 0.910044
0.020364 0.004575 -0.016362 -0.014906 0.007219 -0.999863
-0.024673 0.000358 -0.015889 -0.888279 -0.002969 -0.459294
0.023918 -0.006071 -0.016675 -0.080985 -0.000738 -0.996715
0.019735 -0.031879 0.032872 0.017368 -0.001574 0.999848
0.025254 -0.021611 0.019272 0.999701 -0.024087 -0.004164
0.025813 0.012877 0.026925 0.999996 0.000485 -0.002754
0.024300 -0.005805 0.032626 0.324430 -0.003052 0.945905
0.024354 -0.032094 -0.007995 0.998320 -0.045417 -0.035984
0.003548 0.004961 0.027974 -0.533048 -0.844250 0.055688
0.014837 0.005816 -0.016311 -0.004869 0.009269 -0.999945
-0.025471 0.035000 0.005371 -0.999975 0.006989 0.001218
-0.010792 0.029539 0.033140 0.031959 0.016322 0.999356
0.003984 -0.004321 0.022817 -0.601671 0.783592 0.154842
0.019856 0.010097 -0.016388 -0.016885 -0.026024 -0.999519
-0.022005 -0.011920 -0.016928 -0.023578 0.015080 -0.999608
0.012650 -0.030994 0.032930 -0.001924 -0.000906 0.999998
0.025955 0.033883 0.022547 0.993922 -0.106272 -0.028726
-0.014009 0.038332 -0.016537 0.026646 0.795251 -0.605695
-0.016959 -0.029255 -0.017155 -0.004005 0.010199 -0.999940
-0.025526 0.032290 -0.009095 -0.999422 -0.023648 -0.024412
-0.025647 -0.024441 -0.002775 -0.999342 0.035829 -0.005566
-0.019383 -0.038128 0.007579 0.011546 -0.999856 0.012470
-0.011619 -0.038060 0.009802 0.039401 -0.999088 -0.016448
-0.019212 -0.020607 -0.016981 0.025517 0.015969 -0.999547
0.015580 -0.037601 -0.009133 0.019250 -0.999814 -0.001122
0.023045 0.011943 -0.016423 -0.039410 0.002959 -0.999219
-0.024898 0.009589 -0.006956 -0.999989 -0.003288 -0.003428
0.003294 -0.003065 -0.016455 0.011289 0.008068 -0.999904
0.001474 0.027807 0.031464 -0.080603 -0.896513 0.435623
-0.018640 0.003893 -0.016831 0.014088 0.001109 -0.999900
-0.025652 -0.025703 0.010078 -0.997799 0.065982 0.006644
-0.006191 -0.002047 -0.016591 0.013439 0.005218 -0.999896
-0.025667 -0.036526 0.008734 -0.978235 -0.203738 0.039330
0.017723 -0.037641 0.005024 0.010900 -0.999940 0.000508
0.019395 0.037036 -0.009518 0.039507 0.999174 0.009480
-0.023574 -0.026900 0.033056 0.290931 -0.004594 0.956733
0.007609 0.022456 0.032504 -0.513944 -0.065686 0.855305
-0.024929 0.013105 0.002915 -0.999955 0.009443 0.001317
-0.009764 -0.015710 0.033252 0.026440 -0.002974 0.999646
-0.009827 0.020541 0.033209 0.029479 0.004734 0.999554
-0.002838 0.010257 0.033032 0.031977 0.001871 0.999487
-0.004564 0.028328 -0.016731 0.004342 -0.009708 -0.999943
-0.021764 -0.038213 0.022288 0.059608 -0.997752 0.030618
-0.007792 -0.037872 0.007856 0.038424 -0.999130 -0.016228
0.014512 -0.025333 0.032946 0.010269 -0.005043 0.999935
0.025917 0.018934 0.015618 0.999878 -0.000151 -0.015611
0.002725 -0.025832 -0.016816 0.017424 0.040361 -0.999033
0.005472 0.032274 0.032778 0.001639 0.015079 0.999885
0.018497 -0.007067 -0.016447 -0.011833 0.017558 -0.999776
0.025758 0.010134 0.026435 0.999659 -0.026083 -0.001117
0.021397 -0.037644 0.011011 0.004756 -0.999893 -0.013845
0.019125 -0.037604 -0.002767 0.012752 -0.999796 -0.015658
-0.012170 -0.038008 0.016045 0.030644 -0.999519 -0.004806
0.025874 0.012102 0.018629 0.999723 -0.022180 -0.007820
0.001581 0.005857 0.030421 -0.275400 -0.957374 0.087124
0.025452 -0.005250 0.009022 0.999255 -0.015056 -0.035535
0.025692 0.025367 -0.003785 0.999616 -0.014436 -0.023668
-0.009899 -0.001748 -0.016678 0.019526 -0.011009 -0.999749
-0.019659 -0.030466 -0.017203 0.010579 0.004178 -0.999935
0.024477 -0.033974 0.000599 0.999091 -0.042315 -0.005154
0.018097 -0.019985 -0.016627 -0.013753 0.023695 -0.999625
-0.025285 -0.000007 0.033659 -0.826626 -0.073693 0.557905
0.025939 0.021491 0.027321 0.999814 -0.017168 -0.008738
0.025394 -0.012027 0.010782 0.999545 -0.013815 -0.026829
0.000347 -0.038160 0.029303 -0.008874 -0.997302 -0.072863
0.025089 -0.025533 0.013179 0.999582 -0.019612 -0.021240
0.008434 -0.024404 -0.016744 0.002999 0.049119 -0.998788
-0.024668 0.006946 -0.015622 -0.925518 0.025426 -0.377849
0.019797 0.036734 0.011397 0.027489 0.999576 0.009598
0.021412 -0.038916 0.032806 -0.156840 -0.788857 0.594227
0.025969 0.023293 0.013530 0.999803 0.007651 -0.018314
-0.011394 -0.037836 0.000103 0.027627 -0.999546 -0.012006
0.021609 -0.029283 -0.016893 -0.012794 0.020304 -0.999712
0.024054 -0.034226 -0.014923 0.994389 -0.001442 0.105777
-0.025169 -0.003304 0.031955 -0.998955 0.043324 -0.014552
0.001859 -0.021888 0.021104 0.066135 0.054022 0.996347
-0.025494 -0.037493 0.026717 -0.900985 -0.433849 0.001418
0.003657 -0.037605 -0.000426 -0.010785 -0.999911 -0.007908
0.019412 0.005653 0.032763 0.014306 0.004843 0.999886
0.025322 0.020871 -0.011711 0.999616 -0.011577 -0.025191
0.025499 -0.000465 0.006105 0.999265 -0.022200 -0.031253
-0.025536 -0.019357 0.029476 -0.997298 0.008973 0.072907
0.015393 0.003445 0.032798 0.003820 0.009437 0.999948
0.024553 -0.029929 -0.003600 0.998826 -0.034550 -0.033952
0.020230 0.036634 0.016318 0.032447 0.999269 0.020215
-0.021811 -0.038182 0.023939 0.062389 -0.997836 0.020771
0.021932 -0.032575 -0.016962 -0.014323 0.013200 -0.999810
0.025305 -0.017135 0.028065 0.999795 -0.019755 0.004496
0.019596 0.027327 0.032543 -0.012968 0.025264 0.999597
0.024715 -0.035206 0.011944 0.999663 0.022880 -0.012224
0.014353 0.009760 0.032800 0.006155 0.000289 0.999981
0.025297 -0.018266 0.014686 0.999848 -0.010160 -0.014192
0.019208 0.021946 0.032671 0.002364 0.017163 0.999850
0.000661 -0.032077 0.032926 -0.008171 -0.029757 0.999524
0.025863 0.015447 0.029670 0.998777 -0.034543 -0.035386
-0.025124 0.028117 0.009920 -0.998546 -0.051451 0.016110
-0.008529 -0.000046 -0.016617 0.010399 0.006006 -0.999928
0.018032 0.029990 0.032476 -0.009176 0.008398 0.999923
-0.003777 -0.036160 -0.017127 0.006234 -0.122023 -0.992508
-0.000773 0.025781 -0.016589 0.027035 -0.019340 -0.999447
0.006183 0.023030 -0.016390 0.029309 -0.015243 -0.999454
0.025972 0.026159 0.026260 0.999880 0.013016 -0.008435
0.007891 -0.028091 0.032916 0.009732 -0.000059 0.999953
-0.002158 0.025566 0.021073 0.099279 -0.147255 0.984103
-0.000287 -0.011526 0.032972 0.026903 0.001481 0.999637
0.013570 -0.029771 -0.016961 -0.003955 0.056761 -0.998380
-0.010171 -0.025691 0.033164 0.007239 -0.019060 0.999792
-0.007946 0.037833 -0.016898 0.022516 0.568233 -0.822559
-0.017699 -0.002568 -0.016852 0.046612 0.007112 -0.998888
0.012489 -0.037698 0.001250 0.002617 -0.999905 -0.013507
0.025085 0.009301 -0.014202 0.989121 -0.027741 0.144462
0.024479 -0.021765 -0.011072 0.999308 -0.016941 -0.033112
0.024674 -0.022523 -0.016473 0.923699 -0.014520 -0.382843
0.025763 0.006992 0.018753 0.999650 -0.019620 -0.017740
0.011524 0.031967 -0.016723 0.033486 -0.057471 -0.997785
-0.001749 -0.031437 -0.017126 0.000341 0.047949 -0.998850
0.002641 -0.037765 0.007855 -0.000717 -0.999858 -0.016819
0.007710 0.025847 -0.016490 0.014859 -0.020487 -0.999680
0.006410 -0.005723 0.032848 -0.094634 0.110968 0.989308
0.019806 -0.010124 -0.016582 -0.033619 0.013687 -0.999341
-0.022511 0.023741 -0.016891 -0.077905 -0.031333 -0.996468
0.025211 -0.020610 0.009797 0.997438 -0.071260 0.006318
0.025152 -0.025276 0.020825 0.999199 -0.024559 -0.031596
-0.024879 0.013215 -0.010305 -0.999241 0.006142 -0.038472
0.006157 -0.019266 0.031863 -0.845285 -0.402716 0.351161
-0.009880 -0.000634 -0.016642 0.015641 0.028277 -0.999478
0.010940 -0.032430 -0.017098 -0.003045 0.044580 -0.999001
0.014645 -0.007899 0.032878 -0.000817 0.007863 0.999969
0.008002 0.029576 -0.016673 0.010007 -0.037239 -0.999256
-0.025039 0.013543 0.013218 -0.999566 -0.006267 -0.028778
0.013592 0.027949 -0.016544 -0.015438 -0.023949 -0.999594
-0.019342 0.011724 -0.016907 0.037045 0.014941 -0.999202
0.022408 -0.011871 -0.016569 -0.039438 0.014911 -0.999111
-0.006538 0.038182 -0.016169 0.041356 0.933308 -0.356687
0.024877 -0.021748 0.000918 0.999087 -0.028023 -0.032251
0.018882 0.036590 0.022473 0.026588 0.999610 0.008513
0.018661 0.016615 0.032763 0.004460 0.012110 0.999917
0.004059 0.026720 0.028704 -0.526130 -0.847114 0.074731
-0.018024 -0.003563 0.033559 -0.001641 -0.006991 0.999974
0.000255 -0.013475 0.032946 0.019513 0.047900 0.998662
0.025914 0.034689 0.017963 0.996942 -0.077931 -0.005806
0.004548 -0.038979 0.032940 0.049847 -0.939822 0.338009
0.025222 -0.023949 0.028484 0.999787 -0.017195 -0.011410
0.023136 -0.037777 0.013386 -0.047738 -0.997639 0.049375
0.024753 -0.001173 -0.013517 0.999772 -0.013795 -0.016270
0.009879 -0.037790 0.009962 0.010040 -0.999894 -0.010579
0.003061 0.005829 0.032225 -0.354245 -0.760501 0.544195
0.007920 0.036804 0.017459 0.000672 0.999740 0.022812
0.024835 0.017689 -0.016681 -0.093391 -0.069807 -0.993179
0.025486 0.014117 -0.003576 0.999490 -0.024642 -0.020289
-0.007779 -0.037471 -0.011941 0.014082 -0.999886 -0.005394
0.006686 -0.037784 0.010018 -0.007012 -0.999931 -0.009437
-0.002127 0.036827 0.018549 0.007875 0.999242 0.038127
-0.023533 0.038639 -0.016231 -0.105231 0.842575 -0.528199
0.024627 -0.023283 -0.007751 0.999153 -0.011727 -0.039433
0.003132 -0.028038 -0.016943 0.008162 0.044003 -0.998998
-0.005520 0.022535 0.021587 0.629895 -0.159086 0.760213
-0.005548 -0.018597 0.025437 0.873764 -0.484992 -0.036325
0.002705 0.016000 0.031340 -0.304995 0.937473 0.167700
0.024365 -0.029725 -0.009945 0.996640 -0.039390 -0.071818
0.014200 0.029656 -0.016684 -0.002824 -0.056462 -0.998401
0.017338 0.006177 0.032777 0.006720 0.008968 0.999937
0.008085 0.036900 0.012717 0.009178 0.999695 0.022936
-0.024986 0.038479 -0.007342 -0.654630 0.754202 0.051377
0.020399 -0.011495 -0.016533 -0.022937 0.006610 -0.999715
-0.025200 -0.008745 -0.007785 -0.999455 0.032890 -0.002968
0.026039 0.033654 0.027795 0.991458 -0.127221 -0.028733
0.025763 0.006992 0.018753 0.999650 -0.019620 -0.017740
-0.025575 -0.022550 0.009150 -0.999209 0.039164 -0.006921
0.003490 -0.006645 -0.016479 0.006657 0.006067 -0.999959
0.011747 0.027926 0.032612 0.019580 0.001542 0.999807
0.025347 0.027678 -0.013493 0.999738 -0.008677 -0.021192
-0.000264 0.001530 -0.016469 0.005641 0.011649 -0.999916
-0.005556 -0.018705 0.029595 0.900684 -0.433031 0.035394
0.022635 -0.038718 0.031920 0.060503 -0.982577 -0.175734
0.024350 -0.033011 -0.006251 0.998722 -0.043049 -0.026469
-0.016401 -0.038623 0.032919 0.068192 -0.908062 0.413248
0.004070 0.014731 0.032786 -0.037009 0.112375 0.992976
0.016026 -0.018553 0.032927 0.007946 -0.008351 0.999934
0.008487 0.032763 -0.016825 0.000727 -0.040819 -0.999166
0.025465 0.003106 0.004213 0.998748 -0.023968 -0.043918
-0.024898 0.009589 -0.006956 -0.999989 -0.003288 -0.003428
-0.018777 0.010550 -0.016863 0.037573 -0.001181 -0.999293
-0.009731 0.006173 -0.016628 0.024135 0.000087 -0.999709
-0.009958 0.036174 0.032262 -0.015626 0.999449 -0.029284
-0.020238 -0.010633 -0.016885 0.030339 0.019029 -0.999359
0.025758 0.025506 -0.000346 0.999626 -0.006441 -0.026594
0.022887 -0.037713 0.011566 -0.024629 -0.998074 -0.056937
-0.004761 0.037688 -0.000750 0.043877 0.998540 0.031503
0.001950 -0.038079 0.026240 0.000203 -0.999546 -0.030142
0.019368 0.013549 -0.016373 -0.028292 -0.014411 -0.999496
0.002424 -0.037831 0.013376 -0.007435 -0.999972 -0.001277
0.020911 0.018465 -0.016351 -0.019971 -0.003579 -0.999794
0.022420 -0.038916 0.032597 0.163455 -0.964204 0.208789
-0.017982 0.036380 0.029830 0.017263 0.995250 0.095808
-0.002733 0.037454 -0.016963 0.002945 0.485498 -0.874233
-0.025949 -0.030740 -0.007146 -0.998398 0.048198 -0.029645
-0.023613 0.038762 -0.007602 -0.081318 0.996223 0.030453
-0.012490 -0.010377 -0.016832 0.022387 -0.002541 -0.999746
0.001601 0.037012 0.012259 0.017778 0.998969 0.041765
0.011554 0.029717 -0.016671 0.018669 -0.052587 -0.998442
0.003134 -0.029687 -0.016997 0.009544 0.047905 -0.998806
0.016283 -0.036494 -0.017139 0.031565 -0.389819 -0.920350
0.022294 -0.035332 -0.017003 0.024966 -0.083195 -0.996220
0.012966 -0.037633 -0.005935 0.006698 -0.999977 0.000409
-0.024987 -0.010059 -0.014111 -0.993925 0.019925 -0.108240
0.025361 -0.000770 -0.001296 0.999145 -0.029729 -0.028740
-0.011787 -0.037655 -0.008622 0.022020 -0.999307 -0.030005
-0.025592 -0.014682 0.028607 -0.998851 0.029002 0.038140
0.012810 -0.037719 0.007217 0.006721 -0.999939 -0.008728
-0.014613 0.036350 0.032837 0.080450 0.996756 -0.002370
-0.020661 -0.038229 0.013927 0.016597 -0.999862 0.000109
-0.025280 -0.007379 0.030962 -0.999449 -0.001608 0.033156
0.010404 0.037454 -0.011742 0.042178 0.998463 0.035948
0.025545 -0.007148 0.012998 0.999866 -0.016366 0.000904
-0.000328 -0.002631 0.020406 0.180131 -0.180421 0.966955
-0.007767 0.037447 0.008473 0.074060 0.995160 0.064583
0.009862 0.036703 0.022320 0.000268 0.999847 0.017465
-0.017327 -0.037491 -0.016021 0.022947 -0.938398 -0.344794
-0.001158 0.031007 -0.016842 0.003435 -0.056723 -0.998384
0.025995 0.034539 0.020208 0.998241 -0.048846 -0.033606
-0.025459 0.035726 0.010078 -0.995227 0.097466 -0.004873
-0.021588 0.016812 -0.016902 -0.019211 0.011735 -0.999747
0.025506 -0.008466 0.022448 0.999749 -0.012342 0.018712
0.024488 0.036247 0.029859 0.164439 0.984315 0.063904
0.002286 -0.015919 0.031729 -0.317348 -0.896444 0.309321
0.022979 -0.037868 0.019524 -0.090620 -0.995673 -0.020550
-0.000785 0.016011 0.029442 0.175958 0.979968 0.093285
0.003466 0.034266 -0.016922 0.015966 -0.038883 -0.999116
0.020213 0.009616 0.032772 0.016922 0.008072 0.999824
0.025721 0.005246 0.015881 0.999868 -0.014106 0.008086
0.011691 -0.037839 0.016339 0.004294 -0.999841 -0.017292
-0.025237 -0.007898 -0.002672 -0.999605 0.024555 -0.013685
-0.025015 0.004990 0.010229 -0.999657 0.015372 -0.021225
-0.001503 0.028425 0.032919 0.093290 -0.379224 0.920590
-0.025139 0.027099 0.018641 -0.999569 -0.029351 0.000836
0.014738 -0.007568 -0.016449 0.002544 0.015082 -0.999883
-0.025663 -0.022945 0.018633 -0.999206 0.038147 -0.011506
0.016042 -0.012422 0.032923 0.018109 0.012605 0.999757
-0.025656 -0.023872 0.013461 -0.998697 0.049596 -0.012008
0.008430 0.023946 0.032672 -0.074810 -0.026317 0.996850
0.020936 -0.037104 -0.016463 0.132724 -0.840216 -0.525757
0.025416 0.003256 0.002932 0.999826 -0.014960 -0.011158
0.000418 -0.020495 -0.016690 0.020196 0.023242 -0.999526
-0.002198 0.038058 -0.016095 0.000544 0.956370 -0.292158
-0.024673 0.000358 -0.015889 -0.888279 -0.002969 -0.459294
-0.004466 0.036828 0.018340 0.008121 0.999141 0.040626
-0.010536 0.024787 -0.016686 0.047197 -0.027744 -0.998500
-0.019454 -0.017852 -0.017007 0.024296 0.009686 -0.999658
-0.018181 0.036242 0.033464 0.054623 0.722894 0.688796
-0.025168 0.008179 0.025567 -0.999830 0.017120 0.006802
0.001085 0.006242 0.023127 -0.237729 -0.971166 0.017945
-0.025492 -0.019380 -0.004672 -0.999645 0.024494 -0.010456
-0.024986 0.016100 0.011335 -0.999856 0.003355 -0.016657
0.026039 0.033654 0.027795 0.991458 -0.127221 -0.028733
0.015343 0.004552 -0.016317 -0.003127 0.010197 -0.999943
-0.011853 -0.010105 0.033345 0.013475 -0.016038 0.999781
0.020082 0.001326 0.032787 0.024946 0.018830 0.999511
0.025670 0.001100 0.015423 0.999426 -0.033243 0.006560
0.024622 -0.025903 -0.007583 0.998757 -0.035311 -0.035183
-0.010935 0.000131 -0.016642 0.033051 0.001097 -0.999453
-0.008509 0.002104 -0.016627 0.025775 -0.000733 -0.999667
-0.018079 0.013496 -0.016893 -0.002680 0.019000 -0.999816
0.010237 0.037360 -0.008326 0.037215 0.998828 0.030931
0.025423 0.026996 0.032526 0.449787 0.036284 0.892398
-0.025149 0.003804 0.031531 -0.999881 0.015182 0.002730
-0.018606 -0.024152 0.033202 -0.010695 -0.015885 0.999817
-0.005233 -0.003020 0.026018 0.853445 0.520871 0.018057
0.005655 -0.018247 0.032192 -0.720712 -0.447377 0.529554
-0.023438 -0.038281 0.012745 -0.076589 -0.996877 0.019236
-0.021408 0.025796 -0.016935 -0.015204 -0.000560 -0.999884
0.011981 -0.024285 -0.016759 -0.001915 0.019606 -0.999806
0.004122 0.010055 -0.016365 0.016468 0.002934 -0.999860
0.024952 -0.032711 0.021000 0.998173 -0.060309 0.003601
0.019508 -0.037217 0.032744 0.092014 -0.061787 0.993839
0.014469 -0.003193 -0.016361 -0.002529 0.001217 -0.999996
-0.021913 0.038675 -0.004267 0.016404 0.999303 0.033534
0.025836 0.030694 0.002447 0.999889 0.005204 -0.013990
-0.001835 0.036534 0.032610 -0.028328 0.986840 -0.159202
0.025169 0.015279 -0.014101 0.993320 -0.044518 0.106460
0.019622 -0.036964 -0.016838 0.054397 -0.687379 -0.724259
0.025877 0.013797 0.019907 0.999856 -0.014875 -0.008140
-0.025420 -0.021053 -0.008424 -0.999510 0.024398 -0.019595
0.017983 0.020286 0.032697 0.003710 0.018854 0.999815
-0.020490 0.037787 0.014082 0.031203 0.997622 0.061453
-0.025122 0.028850 0.011291 -0.998130 -0.061130 0.000538
-0.004965 0.019718 0.021548 0.597249 0.365508 0.713931
-0.010374 0.018310 0.033248 0.029755 0.009806 0.999509
0.021992 0.031532 0.032534 -0.005396 -0.006029 0.999967
-0.006893 0.007436 0.033209 0.045888 0.004590 0.998936
0.005324 0.037805 -0.016059 0.035995 0.889212 -0.456077
0.017735 -0.035342 0.032852 0.017408 0.008476 0.999813
-0.007000 0.036561 0.026339 -0.007628 0.999157 0.040336
0.023610 0.027616 -0.016609 -0.008210 -0.002070 -0.999964
0.003789 0.036843 0.015954 0.008811 0.999538 0.029082
-0.004193 0.005178 -0.016511 0.007057 0.001411 -0.999974
0.024620 -0.025311 -0.005969 0.999702 -0.015645 -0.018737
-0.018611 0.037461 0.018174 0.043912 0.992928 0.110298
0.001418 -0.015325 0.022892 -0.308184 -0.939215 0.151321
-0.011146 0.007812 0.033340 0.025754 0.007884 0.999637
0.011434 -0.032844 0.032930 0.000585 -0.001095 0.999999
0.006833 0.019423 0.032322 -0.666480 0.246911 0.703448
0.003570 0.037821 -0.013977 0.039799 0.998577 0.035504
0.021000 0.014133 0.032740 0.021850 0.001424 0.999760
-0.019625 -0.026187 -0.017096 0.021291 0.034944 -0.999162
-0.025955 -0.035661 -0.002516 -0.998404 -0.055661 -0.009527
-0.024874 0.018498 0.001974 -0.999982 -0.005287 -0.002951
0.004226 0.036657 0.032357 0.097964 0.913911 0.393915
0.021067 -0.004339 -0.016474 -0.008658 0.036501 -0.999296
0.009303 0.036869 0.014603 0.008535 0.999795 0.018361
0.024479 -0.021765 -0.011072 0.999308 -0.016941 -0.033112
0.001480 0.019077 0.020493 -0.048543 0.100398 0.993762
0.022403 0.021010 -0.016443 0.002257 0.002686 -0.999994
-0.009385 0.019818 -0.016632 0.024425 -0.005629 -0.999686
-0.006533 -0.014434 -0.016730 0.018171 0.010890 -0.999776
0.020349 -0.037478 -0.006056 0.014598 -0.999861 -0.008000
-0.017748 -0.013045 -0.016873 0.017181 0.012176 -0.999778
-0.025002 0.024499 -0.003523 -0.999724 -0.023157 0.003927
0.025787 0.006671 0.023417 0.999773 -0.002683 0.021155
-0.002198 -0.022821 0.021326 0.089154 -0.012255 0.995942
0.014257 0.019481 -0.016267 -0.028989 -0.015280 -0.999463
-0.005904 0.016742 -0.016559 0.023970 -0.009998 -0.999663
-0.004664 0.003543 -0.016553 0.023869 0.003182 -0.999710
-0.023965 0.005862 0.033681 0.023750 0.030615 0.999249
-0.014500 0.038495 -0.015674 0.033562 0.994811 -0.096049
0.004746 0.001597 0.020574 -0.241696 -0.042732 0.969411
-0.003906 0.037243 0.010998 0.024208 0.998656 0.045829
0.011862 0.006473 -0.016307 0.001935 0.004612 -0.999987
-0.015367 -0.037640 -0.011221 0.020091 -0.999258 -0.032856
0.025375 0.008228 -0.003267 0.999103 -0.011689 -0.040703
0.025938 0.031415 0.010088 0.999810 0.019501 -0.000271
0.025154 -0.026770 0.020970 0.999330 -0.023723 -0.027861
-0.012904 -0.019076 -0.016927 0.014886 0.019769 -0.999694
0.025075 -0.010244 -0.002855 0.999266 -0.030855 -0.022722
0.022104 -0.037480 -0.005880 -0.054691 -0.998490 -0.005204
0.025857 0.021124 0.006754 0.999725 -0.017084 -0.016058
0.025755 0.001422 0.022492 0.999409 -0.018453 0.029015
-0.000171 -0.015397 0.029931 0.019795 -0.999804 -0.000676
-0.025173 -0.001945 0.013660 -0.999916 0.005424 -0.011760
-0.004858 -0.025308 0.028589 0.787046 0.611377 0.082323
-0.025529 -0.009064 0.028236 -0.999665 0.010018 0.023880
-0.021068 -0.025651 0.033151 -0.033313 -0.018992 0.999264
0.025062 -0.018067 0.004417 0.999385 -0.032767 -0.012477
0.006658 -0.027036 0.032948 -0.010196 0.026674 0.999592
-0.020537 -0.019116 0.033220 -0.019780 -0.015331 0.999687
-0.019567 -0.000110 -0.016901 0.027054 -0.019666 -0.999441
0.005478 0.030941 -0.016777 0.004068 -0.076146 -0.997088
-0.025077 -0.011619 -0.013231 -0.998402 0.023440 -0.051427
0.025864 0.033014 0.009814 0.999956 0.009410 -0.000048
-0.010555 0.022467 -0.016659 0.023910 -0.014071 -0.999615
0.013624 -0.014192 0.032946 -0.005462 0.007770 0.999955
-0.025633 -0.023513 0.003306 -0.999291 0.036061 0.010833
0.022908 0.035292 0.032664 0.109517 -0.043730 0.993023
-0.004122 -0.037599 -0.001188 0.020607 -0.999694 -0.013674
0.003113 0.005281 0.030027 -0.429569 -0.898773 0.087617
0.025080 -0.024077 0.013124 0.999627 -0.021286 -0.017130
-0.025392 -0.003688 0.024652 -0.999631 0.013122 -0.023780
0.022740 0.025689 -0.016520 -0.015583 -0.053054 -0.998470
-0.023377 0.013000 0.033526 0.111332 0.031220 0.993293
-0.025735 -0.030510 -0.011907 -0.998134 0.045776 -0.040401
-0.025954 -0.032534 0.024048 -0.998056 -0.048044 0.039699
0.003409 0.031860 -0.016804 -0.003540 -0.050390 -0.998723
0.025882 0.026343 0.024455 0.999637 0.025666 0.008246
-0.019180 -0.011550 -0.016871 0.026646 0.025723 -0.999314
-0.016999 0.036504 0.028274 0.014223 0.995948 0.088794
-0.021461 0.027218 -0.016992 -0.036131 -0.029690 -0.998906
0.007676 0.037249 0.002341 0.033403 0.998815 0.035392
-0.000266 -0.038302 0.030751 0.009381 -0.988538 -0.150681
-0.025326 -0.012873 -0.008064 -0.999443 0.021064 -0.025877
-0.018806 0.032611 -0.017182 -0.008437 -0.003060 -0.999960
0.025891 0.034105 0.007817 0.997888 -0.064399 0.008518
0.003382 0.016612 0.027987 -0.449191 0.891643 0.056567
-0.025497 0.032084 -0.004343 -0.998852 -0.043580 0.019890
-0.012423 -0.038073 0.017632 0.035331 -0.999326 -0.009921
-0.025008 0.023959 0.021807 -0.999929 -0.011908 0.000606
-0.018197 0.038458 -0.002186 0.051358 0.998083 0.034525
0.026032 0.034905 0.015278 0.996022 -0.086082 0.023009
0.020469 -0.037502 -0.007563 0.008123 -0.999967 -0.000416
0.024567 -0.004575 -0.016909 0.121455 0.154262 -0.980537
-0.003845 0.026275 0.031926 0.644413 -0.679323 0.351073
-0.012881 -0.005491 0.033398 0.015979 -0.011893 0.999802
0.025801 0.017887 0.006234 0.999830 -0.014151 -0.011816
0.019266 0.009075 -0.016298 -0.015149 -0.006140 -0.999866
0.024789 -0.024087 0.032494 0.687852 -0.012457 0.725744
0.019335 -0.028357 0.032865 0.023029 -0.003401 0.999729
0.021103 0.032429 0.032536 -0.007617 -0.012385 0.999894
-0.018611 -0.038023 0.001687 0.023424 -0.999724 -0.001548
0.024613 -0.028478 -0.003771 0.999274 -0.030013 -0.023474
-0.002198 0.038058 -0.016095 0.000544 0.956370 -0.292158
0.000654 -0.015019 0.024640 -0.180477 -0.982092 -0.054076
0.011781 0.037360 -0.010061 0.041581 0.998843 0.024140
0.016220 -0.037589 -0.015455 0.025728 -0.980826 -0.193179
0.026043 0.030484 0.028164 0.999458 -0.005907 -0.032383
0.004588 0.018410 0.021305 -0.547118 0.602943 0.580622
0.000347 -0.038160 0.029303 -0.008874 -0.997302 -0.072863
-0.001289 0.036782 0.019899 0.006072 0.999541 0.029680
0.003161 -0.016160 0.023008 -0.542098 -0.835945 0.085592
-0.005495 0.031420 0.032949 0.017646 0.005316 0.999830
-0.008966 -0.037570 -0.008255 0.019843 -0.999526 -0.023530
0.006199 0.019817 0.025790 -0.919681 0.390811 0.038129
-0.005869 0.034680 -0.017015 -0.001312 -0.019447 -0.999810
-0.025350 -0.011797 0.003111 -0.999837 0.018005 0.001557
0.016300 -0.037959 0.024150 -0.001650 -0.999719 -0.023629
0.015648 -0.037633 -0.003098 0.007206 -0.999910 -0.011343
0.025740 0.028868 -0.002269 0.999563 -0.006334 -0.028867
0.025829 0.010990 0.014619 0.999285 -0.024216 -0.029021
-0.020617 0.018375 0.033471 -0.000851 0.008223 0.999966
0.018976 0.005346 -0.016328 -0.011838 0.001871 -0.999928
0.020557 0.036544 0.022245 0.019219 0.999781 0.008326
-0.014576 -0.038075 0.006221 0.006074 -0.999899 -0.012813
0.025243 -0.010898 0.004343 0.999554 -0.019373 -0.022719
0.001466 -0.037525 -0.005345 -0.003746 -0.999992 -0.000992
-0.025198 -0.005734 0.014622 -0.999804 0.003487 0.019465
0.011548 -0.037818 0.014631 0.003537 -0.999921 -0.012082
0.025025 -0.037820 0.030547 0.868875 -0.493809 0.034774
-0.025118 0.003661 0.012577 -0.999786 0.018998 -0.008212
0.025861 0.033738 0.001449 0.997159 -0.075059 -0.006352
-0.021799 0.000105 0.033503 -0.010721 0.001065 0.999942
-0.024852 0.008640 -0.011164 -0.999573 0.010882 -0.027127
0.017681 0.036904 0.001542 0.037753 0.998997 0.024098
-0.023240 -0.018932 -0.017040 -0.040935 -0.010088 -0.999111
-0.013993 -0.027553 -0.017102 0.032126 0.027616 -0.999102
-0.016931 0.030735 0.033349 0.034881 0.016291 0.999259
-0.008904 0.028924 0.033077 0.029466 0.011978 0.999494
-0.017702 -0.019582 0.033288 -0.010959 -0.013287 0.999852
-0.025447 0.033175 0.011065 -0.999469 -0.024865 0.021042
0.024959 -0.037373 0.026914 0.956355 -0.291008 -0.026445
-0.025661 -0.023333 0.028830 -0.998185 0.030938 0.051672
-0.016114 -0.016235 -0.016917 0.023088 0.016898 -0.999591
0.024474 0.021978 -0.016557 -0.122687 -0.002149 -0.992443
-0.024832 0.017156 -0.011394 -0.999888 -0.006471 -0.013491
0.013585 0.037504 -0.015163 0.051100 0.998685 -0.004102
0.025203 0.001911 -0.003870 0.999145 -0.022315 -0.034798
0.015168 -0.023909 0.032935 0.005134 -0.002469 0.999984
-0.004062 0.024184 0.021212 0.323921 -0.143030 0.935210
-0.025011 0.017753 0.014436 -0.999836 0.002110 -0.018001
0.025058 0.007314 -0.011446 0.998732 -0.010787 -0.049181
0.024157 -0.034992 -0.009960 0.998331 0.020509 -0.053992
0.006130 0.025351 0.032099 -0.615599 -0.440360 0.653545
0.019658 -0.032464 -0.017013 0.019230 0.027715 -0.999431
-0.024934 0.009681 -0.005321 -0.999871 0.011295 -0.011437
-0.005289 0.036608 0.025985 -0.016574 0.998956 0.042578
0.005428 0.036487 0.030980 0.004434 0.999990 -0.000758
-0.025007 0.026925 0.022542 -0.999592 -0.027889 -0.006202
0.016179 0.036872 0.005641 0.032621 0.999396 0.011962
0.000505 0.036768 0.019808 0.004563 0.999568 0.029044
0.024403 -0.035883 -0.003883 0.995859 0.084605 -0.033264
0.024914 0.002550 -0.011909 0.998805 -0.021922 -0.043674
-0.014262 0.007340 -0.016766 0.027656 -0.001077 -0.999617
0.025724 0.000883 0.020856 0.999623 -0.016597 -0.021865
0.025825 0.034358 -0.000747 0.995340 -0.094344 -0.019912
0.020863 -0.031370 -0.016970 0.006634 0.025966 -0.999641
0.022142 -0.037703 0.012985 -0.038779 -0.999105 -0.016882
-0.001382 0.038033 -0.014105 0.028007 0.999314 0.024212
0.010958 0.004990 -0.016289 0.003441 0.008086 -0.999961
0.006068 -0.037840 0.015193 0.005937 -0.999966 -0.005779
0.012492 0.028526 0.032593 0.028724 0.006626 0.999565
0.024969 -0.004005 -0.008193 0.999045 -0.029873 -0.031887
-0.016292 0.036313 0.030267 0.000044 0.995476 0.095009
-0.025749 -0.034802 -0.012512 -0.998993 -0.004872 -0.044609
0.004430 0.005591 0.032782 -0.270904 -0.428166 0.862140
0.013087 -0.019042 -0.016543 -0.006822 0.027937 -0.999586
0.005913 -0.037963 0.022584 0.002586 -0.999927 -0.011799
-0.024608 0.038798 -0.012213 -0.539891 0.841373 -0.024697
0.007114 0.004219 0.032801 -0.115287 -0.100707 0.988214
-0.019695 0.009892 0.033500 -0.002104 0.001722 0.999996
-0.005333 0.031452 -0.016933 0.010611 -0.011877 -0.999873
-0.012841 0.038261 -0.006874 0.060176 0.997444 0.038529
-0.013606 0.031323 0.033240 0.037127 0.011147 0.999248
0.025703 0.014863 0.005081 0.999452 -0.025355 -0.021269
0.013671 0.030964 -0.016711 -0.002833 -0.036750 -0.999320
-0.001112 0.024173 -0.016573 0.017137 -0.038327 -0.999118
0.015234 -0.017101 -0.016536 -0.003316 0.018144 -0.999830
0.024487 -0.034471 0.002251 0.999021 -0.022092 -0.038316
-0.025170 0.011477 0.022389 -0.999823 0.017717 0.006356
-0.025474 0.036933 -0.007129 -0.991205 0.132311 -0.002570
-0.008568 0.014986 -0.016601 0.011329 0.005943 -0.999918
-0.003628 -0.029770 -0.017057 -0.000439 0.046469 -0.998920
-0.006120 -0.000851 0.031112 0.985123 0.116459 0.126375
0.001448 -0.037525 -0.013819 -0.011653 -0.999834 0.013994
-0.021504 -0.031607 -0.017192 -0.010661 -0.017788 -0.999785
-0.019558 0.038090 0.007883 0.026050 0.998509 0.047971
0.022899 -0.037878 0.020328 -0.066176 -0.995307 -0.070598
0.011097 0.008637 -0.016295 -0.000129 0.007574 -0.999971
0.015748 0.017874 -0.016240 -0.010226 -0.024233 -0.999654
-0.015116 0.010622 0.033445 0.017963 0.001507 0.999838
0.025231 -0.004325 -0.001873 0.999523 -0.025246 -0.017769
-0.002230 -0.011612 -0.016597 0.017813 0.017103 -0.999695
-0.001468 -0.020951 -0.016739 0.015432 0.018752 -0.999705
-0.005597 -0.037570 -0.006321 0.015833 -0.999720 -0.017586
-0.019609 0.011831 0.033506 0.002745 0.004919 0.999984
0.025977 0.020977 0.021416 0.999936 0.004881 -0.010165
-0.024679 -0.031065 -0.017202 -0.343404 0.027578 -0.938783
-0.024909 0.017586 0.007775 -0.999789 -0.008795 -0.018550
-0.009084 -0.015942 -0.016797 0.018516 0.018866 -0.999651
-0.025304 0.030622 -0.002304 -0.996873 -0.078551 -0.008615
-0.019134 0.038687 -0.015959 0.044528 0.901134 -0.431247
-0.021240 -0.017387 -0.017042 0.014132 0.010235 -0.999848
-0.014885 0.015643 0.033391 0.031030 0.012650 0.999438
-0.007645 0.019941 0.033118 0.078985 0.018247 0.996709
0.015692 0.036674 0.020509 0.023084 0.999641 0.013580
0.001970 0.036530 0.028417 -0.014921 0.999879 0.004509
-0.012824 0.019621 -0.016699 0.027715 -0.002854 -0.999612
0.025425 0.025235 -0.010236 0.999517 -0.015836 -0.026753
-0.017986 0.009116 0.033509 0.005090 0.013270 0.999899
0.008700 -0.038080 0.026579 0.014527 -0.999068 -0.040657
-0.010801 -0.037524 -0.013795 0.013041 -0.999885 -0.007797
-0.023561 -0.009330 -0.016897 -0.353000 0.057218 -0.933872
-0.022114 -0.026301 -0.017111 -0.007139 0.027263 -0.999603
0.025786 0.020237 0.004867 0.999657 -0.018326 -0.018690
0.008543 0.037281 0.000352 0.027689 0.999332 0.023846
0.025373 0.006410 -0.003455 0.998913 -0.018853 -0.042627
-0.013321 -0.033904 0.033067 0.010211 -0.030961 0.999468
0.023211 0.011799 0.032664 0.059413 -0.007885 0.998202
-0.025851 -0.028589 0.001073 -0.997948 0.064005 0.001543
0.025309 0.028573 -0.014601 0.997747 -0.041214 0.052939
-0.025035 0.026729 0.025616 -0.999777 -0.008664 0.019256
-0.019768 0.021032 0.033454 0.002663 0.000595 0.999996
0.020061 0.036057 -0.016583 0.073736 0.321485 -0.944040
-0.014739 -0.016752 -0.016887 0.010327 0.005766 -0.999930
0.025882 0.010139 0.031056 0.986257 -0.018448 0.164186
0.025651 0.033938 -0.007846 0.993134 -0.110954 -0.037066
0.024347 -0.021792 -0.015480 0.992506 0.017584 0.120924
-0.024921 0.020174 0.000037 -0.999814 -0.016173 0.010549
0.025805 0.011280 0.027888 0.999502 -0.015512 -0.027473
0.025708 0.006470 0.008068 0.999828 -0.016353 -0.008773
0.019658 -0.032464 -0.017013 0.019230 0.027715 -0.999431
-0.000916 0.036493 0.028818 0.003751 0.999876 0.015322
-0.025445 -0.016098 -0.002918 -0.999456 0.027287 -0.018500
0.021675 0.029826 0.032545 0.002041 0.010510 0.999943
-0.025692 -0.022304 0.024931 -0.999662 0.025893 0.002357
-0.025197 -0.008336 0.015791 -0.999682 0.024365 -0.006568
-0.011506 -0.024112 0.033190 0.004146 -0.005213 0.999978
0.022853 0.009197 0.032659 0.025998 0.004838 0.999650
-0.018089 -0.019886 -0.016996 0.006143 -0.001192 -0.999980
0.025708 0.006470 0.008068 0.999828 -0.016353 -0.008773
0.023685 0.036541 0.019806 -0.055538 0.997671 0.039611
0.002159 0.007164 0.032868 -0.068727 -0.215662 0.974046
-0.017327 -0.037491 -0.016021 0.022947 -0.938398 -0.344794
0.025768 0.013839 0.007992 0.999601 -0.015000 -0.023919
0.025496 -0.011444 0.024750 0.999968 -0.007997 0.000531
-0.009413 0.036609 0.026246 0.005070 0.999731 0.022635
0.000965 0.015544 0.031804 -0.057547 0.953323 0.296418
0.002236 -0.037166 -0.016782 -0.083823 -0.762611 -0.641403
0.025083 0.012956 -0.012775 0.999660 -0.010400 -0.023896
-0.008710 -0.037513 -0.014129 0.009192 -0.999569 -0.027865
-0.019667 -0.012483 -0.016934 0.024384 0.013863 -0.999607
0.007608 0.012425 -0.016323 0.015883 0.018005 -0.999712
-0.005233 -0.003020 0.026018 0.853445 0.520871 0.018057
-0.024967 0.027479 0.030124 -0.999830 0.011298 0.014543
0.018423 -0.037689 0.009779 0.016057 -0.999466 -0.028462
0.008085 -0.037013 0.032990 -0.042168 0.137935 0.989543
0.025043 -0.020782 0.006428 0.996738 -0.046935 -0.065649
0.016042 -0.012422 0.032923 0.018109 0.012605 0.999757
-0.017840 0.037001 0.022580 0.044850 0.997144 0.060764
-0.007720 -0.005013 0.033266 0.036511 -0.015201 0.999218
-0.005755 -0.038493 0.031796 0.004570 -0.990112 -0.140204
-0.025471 -0.035082 0.031502 -0.999184 -0.018609 0.035850
-0.025875 -0.029323 -0.004923 -0.998070 0.061285 -0.010070
-0.014117 -0.030139 0.033160 0.006768 -0.018546 0.999805
0.001060 -0.037693 0.006436 -0.009539 -0.999683 -0.023322
-0.025009 0.003730 0.005755 -0.999956 0.008880 -0.003020
-0.025081 0.018018 0.033549 -0.765856 0.029790 0.642322
0.025914 0.024192 0.010442 0.999994 -0.001430 -0.003164
0.019162 -0.022033 0.032902 0.021757 -0.002312 0.999761
-0.025078 -0.002072 -0.004368 -0.999356 0.026251 -0.024482
0.025840 0.018766 0.007500 0.999617 -0.018635 -0.020453
0.024354 -0.019782 -0.015396 0.996316 0.015032 0.084431
0.015914 0.001540 0.032846 -0.000635 0.002696 0.999996
-0.008528 -0.028279 -0.017054 0.030271 0.039718 -0.998752
0.025566 0.008245 0.003579 0.999634 -0.021450 -0.016501
-0.002453 -0.014200 0.033109 0.051082 -0.150136 0.987345
0.025625 0.015729 0.000287 0.999332 -0.019893 -0.030650
0.010845 0.012125 0.032823 0.006942 0.001266 0.999975
-0.025716 -0.026186 0.008883 -0.998315 0.057526 -0.007558
-0.009158 -0.037553 -0.010010 0.016985 -0.999557 -0.024453
0.025931 0.022255 0.018421 0.999962 -0.008718 -0.000134
0.002864 -0.037536 -0.010197 -0.015435 -0.999816 -0.011410
-0.003027 -0.016136 0.021870 0.438946 -0.710197 0.550406
-0.003435 0.005453 0.032413 0.510998 -0.743102 0.432065
0.025716 0.002795 0.023313 0.999019 -0.009110 0.043329
-0.021829 -0.014825 -0.016983 0.010744 0.010099 -0.999891
0.011583 -0.027466 -0.016881 -0.000605 0.040316 -0.999187
-0.013022 -0.029895 -0.017162 0.001293 0.025363 -0.999677
0.024108 -0.031570 -0.013531 0.999115 -0.035445 0.022625
0.025154 -0.026770 0.020970 0.999330 -0.023723 -0.027861
-0.006790 0.025021 -0.016675 0.010483 -0.020397 -0.999737
-0.018748 -0.037893 -0.005032 0.023123 -0.999649 -0.012934
-0.007696 -0.027321 -0.016973 -0.001356 0.028009 -0.999607
0.025877 0.030342 0.008098 0.999898 0.002129 -0.014129
0.008667 0.028042 0.032659 0.015626 -0.002925 0.999874
-0.018605 -0.014835 -0.016938 0.023455 0.003202 -0.999720
0.025550 -0.008878 0.018996 0.999469 -0.017147 -0.027706
-0.025023 0.025141 0.023203 -0.999963 -0.008361 0.001904
0.025271 -0.015759 0.030505 0.987267 -0.040386 0.153859
0.023288 -0.037835 0.012798 -0.035111 -0.999007 0.027420
0.025411 -0.000689 0.003485 0.999297 -0.020782 -0.031191
0.024962 0.005356 -0.012440 0.999280 -0.019679 -0.032443
-0.024926 0.010156 0.003720 -0.999963 0.008309 -0.002191
0.000632 -0.037716 0.009004 0.000461 -0.999927 -0.012047
-0.014492 -0.038112 0.012438 0.028426 -0.999589 0.003835
-0.018802 0.030331 -0.017079 0.002870 -0.019683 -0.999802
-0.004500 -0.019048 -0.016763 0.020731 0.025794 -0.999452
-0.024998 0.010759 0.011538 -0.999667 0.013587 -0.021953
-0.015851 0.038432 -0.016406 0.017854 0.808229 -0.588597
-0.025401 -0.016486 -0.005114 -0.999496 0.029658 -0.011345
0.026014 0.035601 -0.002793 0.991808 0.120112 -0.043474
-0.024184 -0.037532 -0.014909 -0.138948 -0.985446 -0.097927
0.005698 0.026709 -0.016493 0.017336 -0.057717 -0.998182
0.026101 0.023513 0.031027 0.990591 0.027573 0.134052
-0.008456 -0.000404 0.033310 0.100571 0.005291 0.994916
0.009325 -0.025350 -0.016846 0.009168 0.043399 -0.999016
-0.025141 -0.013151 -0.012424 -0.998839 0.021080 -0.043306
0.006947 -0.023823 0.032836 -0.515035 0.185858 0.836777
0.006791 -0.015763 0.032920 0.015332 0.002527 0.999879
0.006281 -0.002352 0.030737 -0.893266 0.375297 0.247444
0.025595 0.001754 0.009839 0.999887 -0.010234 -0.010971
0.013009 -0.012206 -0.016422 -0.011034 0.009976 -0.999889
-0.017615 -0.010895 0.033464 0.011167 -0.021977 0.999696
-0.005656 0.021409 0.021637 0.770056 0.160450 0.617470
0.013026 0.036959 0.005728 0.029182 0.999191 0.027660
0.011767 -0.036857 -0.017112 0.061144 -0.449592 -0.891139
0.025606 0.022933 -0.005975 0.999348 -0.010427 -0.034577
0.025558 -0.005284 0.013606 0.999395 -0.021748 0.027127
-0.019516 -0.028160 -0.017149 0.001232 0.023675 -0.999719
0.015810 -0.037545 -0.011111 0.015011 -0.999863 -0.007035
-0.009880 -0.000634 -0.016642 0.015641 0.028277 -0.999478
-0.001421 0.016357 0.025474 0.241737 0.947660 0.208574
-0.024935 0.027332 0.032353 -0.983712 -0.009759 0.179484
0.020747 0.016129 -0.016390 -0.023722 -0.024906 -0.999408
0.005714 -0.038264 0.029350 -0.002252 -0.998986 -0.044959
0.012335 -0.017497 -0.016526 -0.000437 0.018209 -0.999834
0.010518 0.020870 -0.016254 0.025620 -0.011144 -0.999610
0.024250 -0.030933 -0.010851 0.997457 -0.043972 -0.056085
-0.017292 -0.038147 0.019080 0.012899 -0.999853 0.011283
-0.025705 -0.025302 0.006470 -0.998639 0.051547 0.007895
0.022301 -0.036552 -0.016758 0.138995 -0.592310 -0.793631
0.008184 -0.031912 -0.017101 0.014278 0.059166 -0.998146
0.016319 -0.037644 0.001956 0.009597 -0.999814 -0.016714
-0.025093 0.027214 0.000610 -0.998412 -0.054083 0.015786
0.015682 -0.037724 0.008716 0.017118 -0.999672 -0.019027
-0.025181 -0.006557 -0.005079 -0.999574 0.023851 -0.016808
-0.022555 -0.024696 -0.017061 -0.021684 -0.006036 -0.999747
-0.008078 -0.038043 0.026234 0.003414 -0.999496 -0.031569
-0.005325 0.023790 0.029361 0.940148 -0.338956 0.035070
0.004430 0.005591 0.032782 -0.270904 -0.428166 0.862140
-0.008321 0.037622 0.006648 0.073803 0.996585 0.037026
0.010177 -0.031512 0.032893 0.001734 0.001480 0.999997
-0.010370 -0.037950 0.018797 0.020595 -0.999767 -0.006490
0.020983 0.025929 -0.016546 0.001223 -0.028288 -0.999599
0.013962 0.023192 -0.016336 -0.011512 -0.021884 -0.999694
0.015552 -0.015865 -0.016515 -0.002956 0.032065 -0.999481
-0.018985 0.037181 0.021701 0.044102 0.995067 0.088868
-0.006666 -0.020547 0.032738 0.760107 -0.176008 0.625506
-0.013160 0.037770 0.009465 0.059629 0.996468 0.059131
-0.004007 -0.016741 0.028435 0.614142 -0.789194 -0.001308
-0.006971 -0.007250 -0.016635 0.020940 0.007929 -0.999749
-0.021156 0.004810 -0.016899 0.028050 -0.000124 -0.999607
-0.020625 0.000337 -0.016908 0.005901 0.025878 -0.999648
-0.020882 0.037092 0.022723 0.027703 0.992838 0.116215
0.025641 0.021702 -0.004239 0.999493 -0.016067 -0.027505
0.025068 0.036897 -0.013084 0.460857 0.887471 0.002254
-0.025237 0.031089 0.024369 -0.998957 -0.036806 0.027042
0.017488 0.013592 0.032743 -0.000471 0.003148 0.999995
0.005160 0.035497 -0.016980 0.017529 -0.026879 -0.999485
0.024603 -0.024215 -0.016583 0.903548 0.014649 -0.428236
-0.018394 -0.038173 0.009974 0.000073 -0.999860 -0.016756
0.025863 0.014157 0.025355 0.999439 -0.013187 0.030771
0.019750 0.015873 -0.016355 -0.021637 -0.005191 -0.999752
0.025367 0.001075 -0.000996 0.999401 0.004787 -0.034281
0.009151 -0.001698 -0.016363 0.009317 0.015564 -0.999835
-0.015466 -0.010951 -0.016838 0.026068 0.008510 -0.999624
-0.010750 0.024605 0.033178 0.029005 0.018182 0.999414
-0.010487 -0.005662 -0.016693 0.006242 0.011987 -0.999909
-0.017702 -0.019582 0.033288 -0.010959 -0.013287 0.999852
-0.011797 0.030995 0.033145 0.032907 0.005146 0.999445
0.014890 -0.037569 -0.006099 -0.001270 -0.999999 -0.000205
0.025643 0.001164 0.017661 0.999751 -0.020724 -0.008282
-0.013601 0.008680 -0.016708 0.017817 0.003661 -0.999835
-0.022524 -0.000141 -0.016922 -0.017992 0.004017 -0.999830
0.022566 -0.009079 0.032734 0.042456 0.001115 0.999098
-0.014134 -0.000303 -0.016720 0.017385 -0.002586 -0.999846
-0.002567 0.026789 -0.016645 0.014605 -0.028928 -0.999475
-0.025008 0.023959 0.021807 -0.999929 -0.011908 0.000606
0.002088 0.037255 0.005456 0.022922 0.999018 0.037915
0.024884 0.028383 0.032605 0.221247 0.020911 0.974994
0.009440 0.026772 0.032667 0.027808 0.018554 0.999441
-0.003715 0.005721 0.032927 0.354050 -0.398275 0.846183
0.018700 0.008120 -0.016336 -0.011231 0.007554 -0.999908
-0.005285 -0.037604 -0.002257 0.015745 -0.999780 -0.013848
-0.010010 -0.038075 0.027628 0.003792 -0.999535 -0.030257
-0.025163 0.028826 0.019220 -0.999241 -0.038949 -0.000040
0.025646 0.005146 0.006704 0.999204 -0.021761 -0.033422
-0.019569 0.019062 -0.016883 0.017299 0.012283 -0.999775
0.025895 0.025482 0.006802 0.999927 0.004400 -0.011231
-0.002766 0.032227 -0.016863 -0.003795 -0.064283 -0.997925
-0.007561 -0.022384 0.033310 0.371300 0.004092 0.928504
-0.010769 -0.024824 0.033201 0.009715 -0.007782 0.999923
0.000395 0.018760 -0.016429 0.007711 -0.005492 -0.999955
-0.000300 0.021680 0.020909 0.115137 -0.077088 0.990354
-0.002230 -0.011612 -0.016597 0.017813 0.017103 -0.999695
0.016940 0.017654 -0.016265 -0.023956 -0.005069 -0.999700
-0.009497 0.038003 -0.002862 0.031555 0.999025 0.030885
0.015173 0.012953 -0.016235 -0.013661 0.007291 -0.999880
0.025501 0.000258 0.008867 0.998973 -0.041656 0.017823
-0.008087 -0.037862 0.006393 0.028364 -0.999127 -0.030676
-0.024123 -0.011940 0.033478 -0.037413 -0.043182 0.998366
0.024603 -0.037162 -0.003008 0.913371 -0.407042 -0.008421
-0.024895 0.013150 0.006470 -0.999940 0.006914 -0.008489
-0.024918 0.020567 0.007696 -0.999981 0.003052 -0.005325
-0.008321 0.037622 0.006648 0.073803 0.996585 0.037026
0.005877 -0.023625 0.028580 -0.908276 0.411134 0.077482
0.002422 -0.033652 -0.017181 0.007742 0.012075 -0.999897
0.025743 0.030903 -0.003063 0.999570 -0.001317 -0.029292
0.010328 0.032356 -0.016818 0.020588 -0.045879 -0.998735
-0.024926 0.019169 0.008423 -0.999937 0.003967 -0.010466
0.024348 -0.018066 -0.014761 0.999488 -0.019316 0.025489
0.024952 -0.032711 0.021000 0.998173 -0.060309 0.003601
0.017148 -0.024767 0.032949 0.011874 -0.004843 0.999918
0.014648 -0.019994 -0.016653 -0.012756 0.001157 -0.999918
-0.017692 0.030000 -0.017054 0.021751 -0.027010 -0.999399
-0.021359 -0.003182 -0.016906 0.008972 0.005698 -0.999944
0.025297 -0.004036 0.001416 0.999289 -0.021597 -0.030910
-0.011797 0.030995 0.033145 0.032907 0.005146 0.999445
0.019443 -0.036319 -0.017032 0.018534 -0.150806 -0.988390
-0.025495 -0.022825 -0.010318 -0.999197 0.027862 -0.028811
0.025904 0.027430 0.006300 0.999859 -0.002578 -0.016609
0.012490 0.032942 -0.016780 -0.009110 -0.049011 -0.998757
0.024743 -0.028912 0.003107 0.999185 -0.035862 -0.018532
0.011277 -0.037867 0.018241 0.000637 -0.999906 -0.013732
-0.012590 0.008282 0.033391 0.033636 0.000197 0.999434
0.004304 -0.003224 0.021234 -0.574861 0.408632 0.708911
-0.015211 0.008359 0.033464 0.025966 0.007843 0.999632
-0.017203 0.038003 0.009243 0.041975 0.998328 0.039752
-0.010784 -0.037930 0.007986 0.024466 -0.999189 -0.031973
-0.020867 -0.026181 -0.017103 0.011713 0.026092 -0.999591
-0.025626 -0.022323 -0.000959 -0.999634 0.027041 0.000294
0.024347 -0.021792 -0.015480 0.992506 0.017584 0.120924
-0.025181 -0.025344 -0.015823 -0.927441 0.053608 -0.370107
0.005884 -0.037835 0.013556 0.005415 -0.999967 -0.005991
-0.012776 -0.031111 -0.017187 0.001565 0.013322 -0.999910
-0.007824 -0.013383 -0.016738 0.006239 0.004264 -0.999971
0.014753 0.036679 0.022633 0.019860 0.999710 0.013598
0.025714 0.034994 -0.012284 0.996795 -0.068300 -0.041643
-0.022533 0.037985 0.012108 0.016662 0.998217 0.057318
0.021345 -0.038003 0.024701 -0.036512 -0.998029 -0.051036
-0.000925 0.016125 0.027201 0.150001 0.987719 0.043702
-0.024079 -0.038162 0.003992 -0.213099 -0.976601 -0.028972
0.011106 -0.018181 0.032948 -0.002618 0.003926 0.999989
-0.017005 -0.014131 0.033370 -0.002358 -0.020928 0.999778
-0.020689 0.038321 0.003439 0.028047 0.998328 0.050545
0.007286 -0.031125 -0.017053 0.002073 0.057203 -0.998360
-0.024430 0.038339 0.003485 -0.386159 0.921767 0.035026
-0.021146 0.036281 -0.016970 -0.055986 0.050836 -0.997137
-0.007078 0.036267 0.033435 -0.052195 0.534663 0.843452
-0.022060 0.036628 0.026861 0.040632 0.993520 0.106151
-0.020315 -0.038184 0.020944 0.043760 -0.998779 0.022923
0.005659 -0.035689 -0.017174 -0.004742 -0.017555 -0.999835
-0.006123 0.000155 0.021674 0.727051 0.120645 0.675900
0.026049 0.035099 0.003367 0.999211 -0.034125 -0.020314
-0.012779 0.007970 -0.016720 0.023553 0.003721 -0.999716
0.023257 0.020216 -0.016447 -0.053937 -0.018686 -0.998369
0.012394 -0.023249 0.032943 -0.006914 -0.003104 0.999971
-0.025073 -0.001462 0.008066 -0.999976 0.006690 0.001876
-0.014209 -0.030290 -0.017148 0.005461 0.018319 -0.999817
-0.012288 -0.035992 -0.017111 -0.021178 -0.065990 -0.997596
-0.007376 0.007837 -0.016602 0.025321 0.000193 -0.999679
0.025673 0.032434 -0.004966 0.999175 -0.024705 -0.032226
-0.001357 0.023046 -0.016542 0.020800 -0.015163 -0.999669
0.021712 -0.015839 0.032796 0.038430 -0.006707 0.999239
0.021245 -0.037553 -0.001743 0.006434 -0.999976 -0.002631
-0.017857 0.019694 -0.016850 0.012336 0.031530 -0.999427
-0.005086 0.024391 0.025652 0.885023 -0.464176 -0.035707
-0.011256 0.018020 -0.016661 0.016534 -0.008183 -0.999830
0.012805 -0.015445 -0.016482 -0.002783 0.015446 -0.999877
-0.005404 -0.037188 -0.016574 0.027983 -0.815082 -0.578670
0.003813 -0.018690 0.020785 -0.189042 -0.292926 0.937261
-0.004896 -0.037623 0.000416 0.019837 -0.999695 -0.014692
0.022209 -0.023358 0.032771 0.040786 -0.003742 0.999161
-0.025048 0.024378 0.019233 -0.999820 -0.014263 0.012532
-0.005298 -0.007496 -0.016622 0.011928 -0.005357 -0.999915
-0.011986 0.017086 0.033289 0.024280 0.010267 0.999652
-0.015382 -0.027960 -0.017169 0.012955 0.027798 -0.999530
0.014514 -0.005827 0.032876 0.001044 0.006314 0.999980
0.009879 -0.037790 0.009962 0.010040 -0.999894 -0.010579
-0.023019 0.002386 -0.016906 -0.112555 -0.013384 -0.993555
0.025880 0.014553 0.016091 0.999983 0.005635 0.001744
-0.015097 0.019924 -0.016781 0.027853 -0.002867 -0.999608
0.025182 0.007100 -0.008454 0.998794 -0.029476 -0.039264
0.016975 0.027441 -0.016579 -0.009104 -0.020391 -0.999751
-0.025212 0.010194 0.019391 -0.999685 0.016853 -0.018584
-0.025527 -0.021847 0.011241 -0.999463 0.032777 -0.000091
-0.001244 -0.032569 -0.017182 0.001500 0.025465 -0.999675
0.012689 -0.027685 -0.016857 0.013766 0.039038 -0.999143
0.025029 -0.011939 -0.002635 0.999621 -0.022495 -0.015852
-0.019282 -0.002385 0.033533 -0.016104 -0.004834 0.999859
0.019812 -0.005919 -0.016479 -0.010675 0.014541 -0.999837
-0.002246 -0.006314 -0.016556 0.018254 0.001915 -0.999832
-0.025161 0.029206 0.021031 -0.998682 -0.048083 0.017964
0.007384 -0.037786 0.011519 0.005563 -0.999955 -0.007725
0.006402 -0.017299 0.032939 -0.218964 -0.128584 0.967223
-0.024908 0.012256 -0.005552 -0.999979 0.006310 -0.001260
0.017342 -0.026664 0.032912 0.007839 -0.000587 0.999969
0.025747 0.007555 0.025093 0.998900 -0.013900 0.044788
-0.011299 -0.011134 -0.016728 0.026754 -0.010416 -0.999588
-0.003607 0.005014 0.029399 0.541040 -0.840172 0.037223
0.024378 -0.024334 -0.013068 0.999245 -0.023320 -0.031064
0.025772 0.005503 0.024402 0.998584 -0.024430 0.047252
-0.007538 -0.023002 -0.016890 0.019980 0.014538 -0.999695
