0.003001 -0.043409 -0.009277 0.229547 -0.006916 -0.973273
0.001152 0.029227 0.007694 0.229378 0.045654 0.972266
0.006610 0.009298 -0.005690 0.813412 0.031305 -0.580844
0.004606 -0.029902 -0.008556 0.500772 0.071407 -0.862629
0.007392 -0.031114 0.005492 0.734305 -0.060673 0.676102
0.006588 -0.016950 -0.006851 0.716290 -0.042996 -0.696477
0.004836 -0.007201 -0.008038 0.599782 0.048047 -0.798720
-0.007130 -0.000987 0.003985 -0.776625 0.147128 0.612541
0.007348 0.047859 0.001826 0.977260 0.025033 0.210563
0.004232 0.047224 -0.007417 0.583679 -0.035906 -0.811190
0.006069 -0.016302 0.006315 0.667153 -0.008921 0.744868
-0.001897 0.054858 0.008691 -0.068840 -0.080676 0.994360
0.007414 -0.045852 -0.006885 0.703946 0.028504 -0.709682
0.008223 0.016668 -0.001062 0.995017 0.019513 0.097782
0.008153 0.016730 -0.002971 0.959468 0.060573 -0.275232
-0.001128 0.053683 -0.009513 0.004672 -0.039624 -0.999204
-0.002783 -0.057353 0.003097 0.551368 -0.806299 0.214187
0.004125 -0.014636 -0.008457 0.414569 -0.016704 -0.909865
-0.004169 0.037798 0.006644 -0.407916 -0.186644 0.893739
-0.003757 -0.015249 0.007519 -0.345934 0.018792 0.938071
-0.008905 0.041059 -0.002325 -0.978136 -0.093273 -0.185877
0.006703 0.052698 -0.004936 0.863977 -0.046719 -0.501360
0.003891 -0.054783 -0.009321 0.315120 0.020478 -0.948831
0.009235 -0.022703 -0.000624 0.993255 0.082654 -0.081313
-0.009721 0.055489 -0.004759 -0.882853 -0.148037 -0.445708
-0.005721 0.006965 -0.007277 -0.654804 -0.010854 -0.755721
-0.008899 0.011078 -0.001946 -0.975547 0.017479 -0.219095
-0.002661 -0.000455 0.007771 -0.274294 0.006307 0.961625
0.005922 -0.013231 0.005864 0.854331 -0.208817 0.475935
-0.006164 0.010621 -0.006946 -0.632579 -0.102556 -0.767676
0.002627 -0.051148 -0.009561 0.179497 0.034599 -0.983150
-0.002736 -0.057716 0.007769 -0.318835 -0.636103 0.702650
0.008280 -0.056491 0.005601 0.735753 -0.038307 0.676166
-0.004876 0.061325 0.002556 -0.728778 0.200336 0.654788
0.001616 -0.039481 0.008538 0.090111 0.010433 0.995877
-0.002694 0.014824 0.007741 -0.264641 0.001896 0.964345
-0.001329 -0.042830 0.008365 -0.236198 -0.002403 0.971702
0.000512 0.041149 0.007894 0.112656 -0.001405 0.993633
0.003394 -0.043806 -0.009186 0.268997 0.020525 -0.962922
0.004552 -0.030812 -0.008680 0.470463 0.074646 -0.879257
-0.001611 -0.007721 -0.009274 -0.100150 -0.007437 -0.994945
-0.006934 -0.005238 -0.006050 -0.778715 0.019406 -0.627077
-0.003320 0.009245 0.007556 -0.297339 -0.009869 0.954721
0.006197 -0.012907 0.005554 0.721201 0.026977 0.692200
-0.008829 0.009594 0.001107 -0.967360 -0.025889 0.252082
0.001426 -0.039604 -0.009519 0.130182 0.011007 -0.991429
0.001136 -0.047537 -0.009604 0.024151 0.018947 -0.999529
-0.007348 -0.039594 -0.004628 -0.835490 0.118812 -0.536508
0.006036 0.012681 0.005256 0.801768 -0.027080 0.597021
-0.007552 0.044605 0.005090 0.291297 -0.941925 0.167104
0.005391 -0.039270 0.007352 0.537931 -0.045955 0.841736
-0.002255 0.062326 0.000698 0.011457 0.993264 -0.115307
0.006290 0.035660 -0.003244 0.904385 -0.047033 -0.424118
0.005283 -0.043929 0.007464 0.487327 0.025861 0.872837
-0.003598 0.062257 -0.004163 -0.273477 0.806047 -0.524880
0.000015 -0.047521 -0.009571 -0.085218 0.014831 -0.996252
-0.006908 -0.040645 0.003932 -0.849351 -0.079448 0.521815
-0.004470 0.061616 -0.004084 -0.662307 0.297965 -0.687435
-0.003172 -0.015407 0.007669 -0.273162 -0.000162 0.961968
0.001098 0.055477 -0.005060 0.545308 0.296545 -0.784029
0.002533 -0.056300 0.006175 0.162491 -0.124201 -0.978862
-0.002589 -0.047515 -0.008957 -0.360263 0.013777 -0.932749
0.005836 0.007309 0.005628 0.682530 0.074216 0.727080
0.001079 0.055862 -0.009279 0.233436 -0.092848 -0.967929
-0.008252 0.042611 0.003773 -0.883256 -0.111053 0.455550
-0.000138 -0.011327 0.008252 -0.030656 0.001714 0.999529
0.009066 -0.031809 0.001592 0.976178 -0.052997 0.210399
-0.004338 0.044925 -0.008289 -0.398050 -0.103211 -0.911539
-0.002453 0.018475 0.007786 -0.272272 0.024719 0.961903
0.007581 0.026230 0.001722 0.964255 0.014458 0.264581
-0.005726 -0.006987 -0.007237 -0.665480 -0.061992 -0.743837
-0.008658 0.006756 -0.002261 -0.984155 -0.017180 -0.176474
0.000748 0.001185 -0.009123 0.126153 0.007345 -0.991984
-0.002358 0.001440 -0.009069 -0.250082 0.060720 -0.966319
-0.005499 -0.034902 0.006319 -0.567128 0.029612 0.823097
-0.008438 -0.037870 -0.000542 -0.996941 0.050236 0.059875
0.000562 -0.045841 0.008656 -0.036573 0.014809 0.999221
-0.002245 0.027994 0.007796 -0.188744 0.006943 0.982002
-0.001344 -0.024067 0.008229 -0.198943 0.009918 0.979961
0.006122 -0.037839 0.007011 0.660224 -0.061853 0.748517
-0.002800 -0.055733 -0.008977 -0.409338 0.017473 -0.912215
0.007445 0.031400 -0.001278 0.969439 0.238610 -0.057037
-0.001463 0.005410 0.008035 -0.131752 -0.000393 0.991283
0.006018 0.021801 0.004876 0.731155 -0.106947 0.673777
-0.002862 0.046493 0.007954 -0.347947 -0.104964 0.931620
-0.002403 0.042050 -0.008551 -0.182624 -0.066807 -0.980910
0.005540 -0.014093 0.006464 0.848753 -0.005113 0.528766
0.009441 -0.057571 -0.003862 0.658440 -0.712434 -0.242682
0.002694 -0.054449 -0.009611 0.178234 0.007929 -0.983956
-0.002926 -0.039266 -0.009109 -0.340838 -0.039094 -0.939309
0.004520 0.027051 0.006190 0.602073 0.025184 0.798044
-0.001477 -0.040797 0.008311 -0.230631 0.012235 0.972964
0.001009 -0.041833 -0.009581 0.047486 -0.013450 -0.998781
-0.009053 0.027661 -0.001780 -0.985966 -0.014034 -0.166357
-0.005993 0.031131 0.005814 -0.634259 0.173055 0.753504
0.002454 -0.047053 -0.009462 0.180171 0.024315 -0.983335
-0.004298 -0.010344 0.007217 -0.454574 -0.003166 0.890704
0.005908 0.002403 0.005294 0.684120 0.005031 0.729353
-0.005236 0.017706 -0.007717 -0.554315 0.102261 -0.826001
0.010462 -0.056438 0.000567 0.984031 -0.154236 0.088845
-0.001910 -0.019017 -0.009269 -0.198109 -0.005731 -0.980163
-0.001978 -0.058169 -0.008252 -0.113677 -0.957227 -0.266072
0.001438 0.042735 -0.008468 0.211488 -0.120020 -0.969984
-0.009692 0.045134 0.000271 -0.984718 -0.170462 0.035683
0.007331 0.053644 -0.003772 0.925328 -0.100627 -0.365572
-0.001767 -0.007775 0.008029 -0.199593 -0.003050 0.979874
-0.007118 -0.058117 -0.003614 -0.416119 -0.895309 -0.158956
0.007078 -0.037938 0.005980 0.708851 0.103905 0.697664
0.001381 -0.008457 -0.009155 0.147833 0.019435 -0.988821
0.005209 0.033146 0.004306 0.744082 0.347703 0.570477
0.007853 -0.013148 -0.004996 0.869719 0.059948 -0.489892
0.003888 -0.052542 0.002921 -0.731959 -0.500818 -0.461971
-0.002105 -0.024681 0.008046 -0.271813 0.002190 0.962348
-0.005991 0.060059 -0.001374 -0.987277 -0.076176 -0.139576
-0.006079 0.034412 -0.005591 -0.689301 -0.062538 -0.721771
0.003349 0.056638 0.007354 0.464774 0.638193 0.613755
-0.007905 -0.005474 0.003336 -0.923613 0.008911 0.383223
0.004469 0.036223 0.004930 0.717270 -0.123922 0.685687
0.001197 0.043475 0.007665 0.341862 -0.059177 0.937885
0.003368 0.038710 0.006705 0.424376 -0.147461 0.893398
0.002078 -0.016993 -0.009149 0.178974 0.003070 -0.983849
-0.000074 -0.008080 0.008219 -0.013579 0.017135 0.999761
-0.008442 0.054976 -0.006186 -0.736454 -0.170948 -0.654532
0.009441 -0.057571 -0.003862 0.658440 -0.712434 -0.242682
0.002412 0.046105 0.007408 0.451694 -0.167587 0.876292
0.004189 0.044816 -0.007395 0.550704 -0.055929 -0.832824
0.009332 -0.057081 -0.004786 0.839963 -0.323071 -0.435989
0.002606 -0.020442 -0.009069 0.264679 0.018392 -0.964161
0.000562 -0.046868 0.008668 -0.032337 0.017965 0.999316
0.008874 -0.021706 -0.002023 0.986089 0.090865 -0.139184
0.002249 -0.052142 0.005626 -0.049639 -0.823666 -0.564899
-0.007109 0.051902 -0.007297 -0.690803 -0.071641 -0.719485
-0.001053 0.029693 -0.008863 -0.042214 0.073475 -0.996403
-0.002297 0.061509 0.004031 -0.379890 0.304666 0.873420
-0.008468 0.007353 -0.003231 -0.956787 0.011456 -0.290563
0.008048 -0.022159 -0.005194 0.895715 0.047576 -0.442077
-0.002939 -0.030425 0.007836 -0.320171 0.021792 0.947109
-0.008956 0.023373 0.001123 -0.983148 0.002502 0.182792
0.004314 -0.038421 -0.008873 0.298515 0.075643 -0.951403
0.009899 -0.050672 -0.003012 0.959521 0.045131 -0.277999
0.007430 0.043837 0.001238 0.981929 -0.032248 0.186483
0.006515 -0.032599 0.006213 0.699276 0.134233 0.702136
0.000402 -0.012723 -0.009313 0.034116 0.003868 -0.999410
-0.002075 -0.012504 0.007976 -0.240836 0.002937 0.970561
0.001728 -0.044500 -0.009516 0.106857 0.016828 -0.994132
-0.008013 0.008168 0.003661 -0.898502 -0.113231 0.424115
-0.007317 -0.033692 -0.004923 -0.859298 0.038884 -0.509995
-0.000367 -0.042385 0.008556 -0.137916 0.006624 0.990422
0.002387 0.049328 -0.008495 0.738093 0.082944 -0.669582
0.001556 -0.009541 -0.009126 0.161001 -0.003299 -0.986949
-0.003312 0.021864 -0.008588 -0.309740 0.044042 -0.949801
0.006726 0.044285 0.002864 0.897401 -0.044147 0.439001
-0.005824 0.014135 -0.007300 -0.612214 -0.005079 -0.790676
-0.004496 0.003447 -0.008023 -0.476100 0.056814 -0.877554
-0.002201 0.004506 0.007894 -0.217012 -0.006195 0.976149
0.001868 0.039816 0.007333 0.395833 -0.123894 0.909927
-0.008439 0.008299 0.002031 -0.965413 -0.015354 0.260273
-0.008151 0.047214 0.004773 -0.793668 -0.045114 0.606676
0.002757 -0.034228 0.008271 0.203769 0.010065 0.978967
-0.001657 0.034961 -0.007909 -0.162894 -0.131661 -0.977819
-0.008294 -0.040645 -0.002495 -0.966039 -0.186248 -0.179111
-0.001611 0.050057 0.008341 -0.095501 -0.118004 0.988410
-0.006832 0.055347 -0.008088 -0.593627 -0.124493 -0.795052
-0.007063 -0.040714 -0.005023 -0.743138 -0.226317 -0.629703
0.000229 0.019930 -0.008985 0.122200 0.015878 -0.992378
-0.007647 -0.015963 0.003155 -0.854845 0.155088 0.495165
0.006876 0.036063 0.000425 0.989123 -0.092040 0.114737
-0.003047 -0.004652 0.007681 -0.295643 0.004019 0.955290
-0.003407 0.007152 -0.008555 -0.354312 -0.054169 -0.933557
-0.002604 -0.049240 -0.008988 -0.372587 0.019592 -0.927790
0.006313 -0.002615 -0.006508 0.715613 0.022826 -0.698124
0.008076 -0.012978 -0.004572 0.885993 0.027497 -0.462882
-0.003312 0.021864 -0.008588 -0.309740 0.044042 -0.949801
0.007052 0.030706 0.002516 0.911780 0.167036 0.375176
-0.008089 -0.047603 0.001272 -0.985485 0.018143 0.168792
0.007064 0.002516 -0.005516 0.813069 -0.013720 -0.582006
0.004927 0.010413 0.006428 0.717684 -0.071930 0.692644
0.005245 0.005607 0.006020 0.679446 -0.041474 0.732552
0.006676 -0.043223 -0.007503 0.658239 0.036926 -0.751903
0.007853 -0.013148 -0.004996 0.869719 0.059948 -0.489892
0.002565 -0.007581 -0.008881 0.275114 0.027478 -0.961019
-0.008127 0.023750 0.003503 -0.879170 -0.002303 0.476502
-0.002686 -0.057208 0.005259 0.625515 -0.218907 -0.748873
0.006982 0.011990 0.004117 0.698360 0.068507 0.712461
-0.002209 -0.010580 -0.009166 -0.250374 0.033223 -0.967579
0.008907 -0.053335 0.004574 0.847025 0.021410 0.531122
0.000690 -0.043029 0.008628 -0.004667 0.002073 0.999987
-0.007123 0.040921 -0.005731 -0.759116 -0.064695 -0.647732
0.000243 -0.052165 -0.009712 -0.075661 0.006957 -0.997109
-0.001548 -0.052217 0.003008 0.442058 -0.884857 -0.147009
-0.006805 0.026409 -0.006359 -0.726146 -0.016139 -0.687351
-0.007374 -0.035142 -0.004830 -0.910161 -0.049767 -0.411255
-0.007144 0.024824 -0.005950 -0.778653 -0.009938 -0.627376
0.006682 0.000489 0.005001 0.717469 0.080365 0.691939
0.006490 0.005224 -0.005825 0.765368 0.228588 -0.601630
-0.001297 -0.025791 0.008244 -0.192973 0.001544 0.981203
-0.007200 -0.036898 0.004034 -0.892230 -0.023799 0.450953
-0.007963 -0.014129 -0.003934 -0.935690 -0.094166 -0.340024
-0.000993 -0.029147 0.008325 -0.174240 0.010573 0.984646
0.005975 0.015344 0.005240 0.794011 0.031123 0.607106
-0.010183 0.052219 0.000105 -0.993915 -0.079638 0.076097
-0.001187 0.032906 -0.008102 -0.087831 0.323644 -0.942094
0.000823 -0.048659 0.008717 -0.018471 0.025766 0.999497
-0.002246 -0.056434 0.002884 0.993653 -0.097916 -0.055366
-0.006558 -0.054582 -0.005963 -0.809970 -0.016816 -0.586230
-0.000133 -0.051961 -0.002871 0.069145 -0.996395 0.049159
0.004232 0.047224 -0.007417 0.583679 -0.035906 -0.811190
-0.008181 -0.012804 -0.003629 -0.953305 -0.058771 -0.296237
-0.002202 0.053331 0.008504 -0.112455 -0.113964 0.987100
0.007366 0.041909 0.000230 0.999954 -0.007496 0.005988
0.002824 0.044476 -0.008048 0.395908 -0.050971 -0.916874
-0.008985 0.054261 0.004315 -0.882715 -0.179469 0.434286
0.001976 -0.049801 0.008701 0.095962 0.073420 0.992674
-0.001601 -0.030148 0.008206 -0.230300 0.005064 0.973106
-0.003408 0.013015 -0.008591 -0.385569 -0.055833 -0.920988
-0.004431 0.007459 0.007153 -0.452113 0.008611 0.891919
-0.000942 -0.010220 0.008196 -0.124105 0.000337 0.992269
-0.008693 -0.009469 -0.001860 -0.985759 0.018880 -0.167100
-0.001136 0.024423 -0.008949 -0.038987 0.006940 -0.999216
0.006508 0.012718 -0.005815 0.805383 -0.076143 -0.587843
0.006493 0.026748 0.004086 0.848101 0.019000 0.529493
0.008235 -0.039960 -0.006920 0.618630 0.036262 -0.784845
0.002295 0.023716 -0.008473 0.329201 0.029038 -0.943813
-0.002606 0.055140 -0.005540 -0.213591 0.386708 -0.897127
-0.006523 0.024885 -0.006650 -0.703507 -0.025244 -0.710240
0.001265 0.062238 -0.003921 0.292318 0.786180 -0.544493
-0.002791 -0.053374 -0.008969 -0.400739 0.008503 -0.916153
-0.008730 0.013718 0.001764 -0.946436 0.000366 0.322892
-0.008650 -0.022612 -0.001787 -0.965559 -0.033791 -0.257982
0.001302 -0.048026 0.008696 0.027232 0.026240 0.999285
0.003888 -0.052542 0.002921 -0.731959 -0.500818 -0.461971
0.005547 0.001372 0.005951 0.773430 0.039858 0.632627
-0.000168 0.041831 0.007851 0.080476 -0.030755 0.996282
-0.004696 -0.057611 0.006699 -0.495593 -0.545051 0.676245
0.001861 0.054578 0.008219 0.362015 -0.092896 0.927532
-0.000258 -0.030858 0.008440 -0.095650 0.013648 0.995321
0.001944 -0.038887 -0.009410 0.136967 0.052017 -0.989209
-0.007724 0.030607 0.004057 -0.813219 0.140949 0.564631
0.004716 0.049702 -0.007275 0.625319 -0.053072 -0.778563
-0.002911 0.010475 -0.008930 -0.476471 -0.087652 -0.874810
-0.009275 0.056432 -0.001794 0.606766 0.759982 0.232943
-0.001213 -0.012977 0.008161 -0.158533 -0.001340 0.987353
-0.007649 -0.005274 -0.004860 -0.890809 -0.015680 -0.454107
-0.001176 0.044626 0.008120 -0.008510 0.002713 0.999960
0.002355 -0.042986 0.008484 0.173232 0.014072 0.984781
0.006195 0.049046 -0.005401 0.844863 -0.072434 -0.530057
-0.001862 0.053819 0.008679 -0.075435 -0.125499 0.989222
0.002680 0.056601 0.007556 0.171854 0.818755 0.547819
-0.000055 0.013877 -0.009052 0.066784 0.025210 -0.997449
0.008423 -0.009555 0.002711 0.940334 0.025522 0.339293
-0.001221 -0.043954 0.008386 -0.224484 -0.005422 0.974463
0.007358 0.009607 -0.004403 0.880187 0.058987 -0.470948
0.008235 -0.039960 -0.006920 0.618630 0.036262 -0.784845
-0.005273 0.036675 0.005942 -0.472345 -0.153630 0.867922
-0.004392 0.054324 0.008231 -0.296376 -0.092056 0.950625
-0.006476 0.001837 0.005743 -0.766877 -0.022808 0.641389
0.008487 0.006039 -0.001070 0.998083 0.051297 -0.034638
-0.006996 0.006528 -0.005788 -0.780117 0.019965 -0.625315
-0.006683 -0.049276 0.004687 -0.829779 0.003371 0.558082
-0.001138 0.015433 0.008010 -0.075694 -0.003981 0.997123
0.003816 -0.003037 0.007413 0.384850 0.009102 0.922934
-0.005306 -0.027166 -0.007385 -0.634239 0.007301 -0.773103
-0.001996 0.054522 -0.005966 -0.265412 0.913733 -0.307648
0.006964 -0.047165 -0.007351 0.656415 0.023891 -0.754022
-0.005010 -0.006013 -0.007884 -0.549223 0.030959 -0.835102
-0.005387 -0.037074 -0.007226 -0.684265 0.018712 -0.728993
-0.000242 0.054982 -0.009511 0.125837 -0.117220 -0.985101
-0.000251 -0.052640 0.005174 -0.516763 -0.552769 -0.653760
0.008704 -0.021662 -0.003403 0.983749 -0.015706 -0.178858
-0.007956 0.042622 0.004264 -0.806448 -0.125234 0.577891
0.008085 -0.005075 -0.004105 0.948076 0.018666 -0.317495
0.002185 -0.051999 0.004903 0.005847 -0.974267 -0.225320
0.001027 0.044724 -0.008784 0.199400 -0.095629 -0.975241
0.009240 -0.028232 -0.001278 0.981617 -0.000005 -0.190863
-0.004525 -0.002964 -0.007958 -0.497880 -0.032382 -0.866641
0.000226 -0.040696 0.008566 -0.065156 0.017776 0.997717
0.007608 0.056615 -0.003236 0.860223 0.488758 -0.145370
-0.002058 0.016222 0.007877 -0.199517 0.004499 0.979884
-0.001277 0.062386 0.003709 -0.055332 0.897504 0.437521
-0.001110 0.017062 0.008002 -0.067364 0.003169 0.997723
0.009182 -0.040226 -0.004720 0.982937 -0.010218 -0.183659
-0.004800 -0.057212 -0.002126 0.543312 -0.784723 -0.298365
0.003408 -0.004848 -0.008530 0.372934 0.012745 -0.927770
0.004260 0.017873 0.006979 0.607650 -0.048471 0.792725
0.004233 -0.053523 0.008300 0.342637 0.022799 0.939191
-0.004871 0.047349 -0.008348 -0.406557 -0.123887 -0.905187
0.009014 -0.022216 -0.001822 0.976406 0.138304 -0.165842
0.009088 -0.015249 -0.001693 0.975989 0.070244 -0.206183
0.003067 0.056009 -0.003770 0.245649 0.690317 -0.680528
0.001053 -0.058015 -0.009049 0.062953 -0.935053 -0.348874
0.004007 0.034493 0.005408 0.533700 -0.116875 0.837559
0.009575 -0.048771 -0.003667 0.939170 0.045135 -0.340474
0.002489 0.001896 -0.008787 0.281185 0.027186 -0.959268
-0.007865 0.036695 0.003078 -0.900468 -0.138792 0.412181
-0.001221 -0.043954 0.008386 -0.224484 -0.005422 0.974463
-0.005753 -0.015015 -0.007528 -0.631680 0.029573 -0.774665
0.003469 -0.038648 0.008178 0.211018 0.013399 0.977390
-0.003293 -0.043459 0.007673 -0.459799 -0.003917 0.888014
0.004138 -0.052333 -0.004073 -0.506171 -0.836761 0.208858
0.004500 0.002269 -0.008079 0.549602 -0.027887 -0.834961
-0.008127 0.023750 0.003503 -0.879170 -0.002303 0.476502
0.001905 0.042037 -0.008284 0.390118 -0.119243 -0.913011
0.002662 -0.048256 -0.009449 0.187747 0.028666 -0.981799
0.001325 0.021260 -0.008766 0.032396 0.115077 -0.992828
0.004158 0.043603 -0.007248 0.553051 -0.103931 -0.826640
-0.004221 -0.016730 -0.008366 -0.476010 -0.000093 -0.879440
-0.003531 -0.052210 -0.008622 -0.465587 -0.002319 -0.884999
-0.007068 -0.054394 0.004139 -0.861147 -0.020998 0.507922
0.004439 -0.017739 0.007461 0.472395 0.046141 0.880178
-0.006232 -0.049266 0.005323 -0.798476 0.000359 0.602027
0.006932 0.000683 -0.006154 0.730106 0.068491 -0.679893
0.007661 0.014908 -0.003813 0.945078 -0.099439 -0.311352
-0.001344 0.036713 0.007344 0.019147 -0.005831 0.999800
-0.008271 0.000703 0.002806 -0.893207 -0.045022 0.447385
-0.007912 -0.052667 -0.003183 -0.956772 -0.000686 -0.290837
0.000700 -0.057236 0.005080 0.384728 -0.895559 -0.223515
0.007101 -0.036980 0.005853 0.714821 0.087068 0.693866
0.005899 -0.014754 0.005900 0.703487 0.176684 0.688396
0.007763 0.025400 -0.001874 0.988171 0.029412 -0.150507
0.008734 -0.008668 0.001613 0.974952 0.020965 0.221426
-0.006501 -0.006523 0.005352 -0.689817 0.063391 0.721203
-0.000209 -0.052112 0.004360 -0.123979 -0.930391 -0.344967
0.007380 -0.056524 0.006494 0.646083 -0.082621 0.758782
0.001174 -0.032167 -0.009456 0.078934 0.022173 -0.996633
-0.007364 -0.038307 -0.004801 -0.860685 -0.070867 -0.504183
0.005200 -0.000582 0.006207 0.599664 0.103790 0.793493
0.002776 -0.033183 -0.009209 0.242232 0.020084 -0.970010
-0.007754 -0.052800 0.002734 -0.942656 0.012524 0.333532
0.007053 -0.003106 0.004831 0.681466 -0.086615 0.726706
-0.000682 0.033857 0.006933 0.018599 0.152345 0.988152
-0.001842 0.049161 0.008278 -0.160039 -0.086469 0.983316
-0.006020 0.061386 -0.000818 -0.964634 0.257973 0.054142
-0.001821 -0.049583 0.008318 -0.302221 0.028463 0.952813
0.000875 -0.057296 0.005560 0.322511 -0.866949 -0.379981
-0.003789 -0.004066 -0.008456 -0.490350 -0.009912 -0.871469
-0.005626 0.048849 0.007153 -0.493171 -0.051234 0.868423
-0.001821 -0.049583 0.008318 -0.302221 0.028463 0.952813
-0.004083 0.046273 -0.008549 -0.364083 -0.091848 -0.926827
0.004602 0.031697 0.005636 0.619159 0.243410 0.746588
0.008174 -0.030177 0.004330 0.845920 0.065946 0.529217
0.005089 0.008207 0.006208 0.713967 0.052458 0.698212
0.007456 0.011574 -0.004067 0.875990 0.010573 -0.482213
-0.008600 -0.005229 0.001468 -0.970728 -0.050256 0.234865
0.009113 -0.040423 0.003662 0.938558 -0.024683 0.344238
0.008145 -0.005271 -0.003707 0.976191 -0.017813 -0.216180
-0.000647 0.056468 0.006681 -0.011255 0.925529 -0.378509
-0.006483 -0.024436 0.005274 -0.715982 -0.031904 0.697389
-0.004796 0.022544 0.006855 -0.486094 -0.001094 0.873906
-0.006057 -0.046929 -0.006549 -0.773540 -0.024004 -0.633293
0.002981 0.013741 0.007541 0.358023 -0.007028 0.933686
-0.007433 -0.051081 0.003433 -0.906718 0.019815 0.421271
-0.009780 0.050524 0.001974 -0.969477 -0.035289 0.242629
-0.006551 -0.053385 0.004960 -0.809394 0.010871 0.587165
0.000847 -0.012913 -0.009280 0.132142 0.019175 -0.991045
0.008930 -0.011351 -0.000550 0.998560 0.025562 0.047171
-0.007821 -0.038022 -0.003982 -0.912053 -0.007894 -0.409996
0.003517 -0.026937 -0.008891 0.335837 0.020066 -0.941706
-0.007787 0.025704 -0.005069 -0.851709 -0.012022 -0.523877
-0.005868 -0.056909 -0.006840 -0.707180 -0.169578 -0.686396
-0.008168 -0.044705 0.000435 -0.992891 0.040830 0.111808
0.004400 -0.048307 -0.008949 0.358752 0.030428 -0.932937
0.007521 0.016083 0.001315 0.979533 0.060534 0.191968
-0.006812 0.013650 0.005133 -0.770467 -0.113654 0.627266
0.003028 0.021942 -0.008194 0.425161 0.026030 -0.904743
-0.003572 -0.057371 0.004167 0.763417 -0.618579 -0.185888
0.004127 0.028909 -0.007416 0.568670 0.030715 -0.821992
0.008643 -0.030544 -0.004457 0.916763 0.003383 -0.399418
0.001857 -0.054184 0.008838 0.086125 0.011970 0.996212
-0.004672 0.062196 0.001662 -0.410930 0.909497 0.062862
-0.002082 -0.052689 0.001888 0.743090 -0.653467 0.144215
0.001574 -0.025400 -0.009323 0.127864 0.012992 -0.991707
0.002617 -0.001420 0.007810 0.228713 0.004774 0.973482
-0.008220 0.043840 0.003886 -0.809591 -0.171884 0.561264
-0.003061 -0.053259 -0.000132 0.584893 -0.760444 -0.282179
-0.004859 0.055569 -0.006467 0.530734 0.778703 0.334579
-0.007830 -0.001697 0.003435 -0.823229 0.140580 0.550028
-0.005306 0.023998 0.006562 -0.554424 -0.003585 0.832226
-0.002812 0.048764 -0.009196 -0.202668 -0.014526 -0.979140
0.000475 0.005444 0.008073 0.071992 0.004925 0.997393
0.008059 -0.005427 0.003187 0.875964 0.036466 0.480996
0.000807 0.050486 -0.009127 0.207503 -0.042885 -0.977294
-0.006899 0.037585 0.004682 -0.687828 -0.016069 0.725696
0.000582 -0.017065 -0.009332 0.042404 -0.003816 -0.999093
-0.003771 0.007919 -0.008491 -0.337073 0.019440 -0.941278
-0.004200 -0.011793 0.007303 -0.435177 0.014197 0.900233
0.007815 0.024221 -0.001754 0.989849 0.021762 -0.140448
0.006489 0.054232 0.004328 0.842975 -0.024366 0.537401
-0.001951 0.017275 0.007892 -0.179518 0.000033 0.983755
-0.001450 -0.016087 0.008135 -0.189902 0.005215 0.981789
-0.003582 0.008027 0.007450 -0.323531 -0.002664 0.946214
0.002062 -0.025188 -0.009250 0.146862 0.040106 -0.988344
-0.009375 0.050737 0.003154 -0.878634 -0.129443 0.459615
0.008168 0.015865 -0.001876 0.997910 -0.048223 -0.043025
-0.000166 0.006905 -0.009137 0.008895 0.007551 -0.999932
0.000400 0.061465 -0.004787 0.378282 0.294143 -0.877714
0.008978 -0.057977 0.000270 -0.064628 -0.997776 -0.016291
-0.002535 -0.026018 0.007921 -0.281967 -0.001137 0.959423
-0.007316 -0.032291 0.003860 -0.922717 -0.000069 0.385477
0.006794 -0.052611 -0.007764 0.624283 0.013721 -0.781078
0.006219 0.030316 -0.005078 0.813103 0.144024 -0.564023
0.009420 -0.028501 0.000208 0.999433 0.001401 0.033653
0.001507 -0.032958 -0.009423 0.129021 0.014602 -0.991534
-0.004221 -0.016730 -0.008366 -0.476010 -0.000093 -0.879440
-0.008027 0.040408 -0.004456 -0.862205 -0.035151 -0.505339
0.002149 0.044272 0.007259 0.350812 -0.007780 0.936413
-0.000133 -0.051961 -0.002871 0.069145 -0.996395 0.049159
-0.001176 0.012852 0.008022 -0.080970 -0.002078 0.996714
-0.009221 0.052506 0.003791 -0.918124 -0.007108 0.396230
-0.002068 -0.043534 0.008146 -0.307941 -0.008803 0.951365
0.002938 0.056828 0.002435 0.504057 0.814458 0.287377
-0.002050 0.011176 0.007892 -0.208180 0.007195 0.978064
-0.002979 0.054275 -0.009411 -0.153041 -0.091198 -0.984003
-0.008889 0.031578 -0.000160 -0.966671 0.254280 0.029799
0.009490 -0.037878 -0.000391 0.984709 0.110496 0.134681
-0.007189 -0.025591 0.004529 -0.831092 0.027314 0.555463
0.000015 0.051187 -0.009277 0.125413 -0.086241 -0.988349
-0.009274 0.049954 -0.003982 -0.925023 -0.023973 -0.379153
0.008792 -0.022107 -0.002876 0.984882 -0.006952 -0.173089
-0.008150 -0.030896 0.001310 -0.972831 -0.036745 0.228583
0.000976 -0.054430 0.008857 -0.016419 0.004381 0.999856
0.007357 -0.035490 0.005657 0.801833 -0.021860 0.597148
0.004182 -0.047507 -0.009003 0.336883 0.034657 -0.940908
0.004182 -0.047507 -0.009003 0.336883 0.034657 -0.940908
0.002509 0.005079 -0.008724 0.263018 0.019092 -0.964602
-0.008493 -0.002566 0.001458 -0.976678 -0.047635 0.209360
0.007706 -0.020954 -0.005647 0.822754 0.029113 -0.567652
-0.000577 -0.055847 0.005521 -0.409005 0.006312 -0.912510
0.007390 -0.018737 0.005234 0.743601 0.206141 0.636053
0.004509 -0.027885 -0.008502 0.516935 0.018437 -0.855826
0.001587 0.031408 -0.008294 0.272778 0.240024 -0.931655
-0.005139 0.021456 0.006675 -0.541090 0.020162 0.840723
0.007752 -0.036219 0.005078 0.741190 0.002443 0.671291
0.005973 0.039240 -0.004947 0.809928 -0.203271 -0.550180
-0.004511 0.056591 -0.008943 -0.169693 0.685286 -0.708228
0.000503 -0.057509 0.005971 0.055709 -0.864530 -0.499484
0.006767 0.039294 0.002624 0.940019 -0.029929 0.339805
0.002235 -0.016063 -0.009113 0.196411 0.015235 -0.980403
-0.006848 -0.035740 0.004876 -0.771031 -0.071482 0.632773
-0.001652 -0.013224 0.008080 -0.206251 0.007711 0.978469
-0.007229 0.007810 0.004635 -0.796748 -0.004438 0.604296
-0.006970 -0.032449 0.004646 -0.820468 0.046095 0.569831
-0.008956 0.023373 0.001123 -0.983148 0.002502 0.182792
0.008614 -0.001822 -0.001607 0.989006 0.009444 -0.147574
0.001013 0.051622 -0.009149 0.250446 -0.039447 -0.967327
0.005225 0.038058 -0.005428 0.741441 -0.235329 -0.628399
0.000800 0.012709 -0.009015 0.155321 0.030190 -0.987403
0.007313 0.014565 0.003424 0.897144 0.058735 0.437815
0.005475 -0.046627 -0.008384 0.497591 0.025321 -0.867042
0.007782 0.028055 -0.001290 0.995137 0.024411 -0.095431
-0.006469 -0.016256 -0.006552 -0.763817 -0.095693 -0.638300
-0.008413 0.032755 0.000419 -0.955493 0.276421 0.103072
0.003261 -0.051327 -0.009435 0.235961 0.038342 -0.971006
0.003112 0.047285 -0.008119 0.431746 -0.018307 -0.901809
0.002381 0.038330 0.006867 0.356136 -0.161414 0.920387
-0.005525 -0.032969 -0.007293 -0.664238 -0.017705 -0.747312
0.007579 -0.056965 -0.001320 -0.673288 -0.719927 -0.168488
0.007737 0.029608 -0.000913 0.994693 0.092801 -0.044427
0.008543 -0.005536 0.002053 0.979588 -0.001578 0.201009
0.005463 0.054996 0.005690 0.764783 -0.121481 0.632732
0.001012 -0.004381 0.008130 0.101405 0.011383 0.994780
0.003314 0.060417 0.000228 0.970609 -0.038206 0.237611
-0.007856 -0.010168 -0.004129 -0.905616 0.024637 -0.423383
-0.002354 0.019891 -0.008891 -0.174191 0.039224 -0.983930
-0.004169 0.037798 0.006644 -0.407916 -0.186644 0.893739
-0.008529 -0.026608 -0.000059 -0.977985 -0.021486 0.207567
-0.000039 0.062530 0.002128 0.076097 0.994832 0.067219
0.007633 -0.032685 0.005355 0.727626 -0.019383 0.685700
0.007828 0.051102 0.000278 0.997042 -0.051155 0.057359
-0.001642 0.025799 -0.008900 -0.107743 0.005877 -0.994161
0.000587 -0.032144 0.008493 0.006337 0.008269 0.999946
0.001711 0.040104 -0.008102 0.301462 -0.099043 -0.948320
-0.005824 0.014135 -0.007300 -0.612214 -0.005079 -0.790676
0.007341 -0.044177 0.005963 0.706903 0.017168 0.707102
-0.007623 -0.052358 -0.004002 -0.927819 -0.004803 -0.372999
-0.004555 -0.044663 0.006882 -0.582369 0.016218 0.812763
-0.008670 0.041182 0.001957 -0.940025 -0.027919 0.339961
-0.004892 0.054033 -0.008803 -0.379146 -0.132673 -0.915776
-0.005119 -0.019548 -0.007435 -0.619571 -0.004306 -0.784929
0.000643 0.013455 0.007997 0.106507 0.011045 0.994251
-0.001403 0.056470 -0.009590 -0.023451 0.347023 -0.937563
0.000126 0.055940 0.005506 -0.175143 0.973523 -0.146892
0.002303 -0.048062 -0.009507 0.155355 0.019801 -0.987660
0.002196 -0.045787 -0.009476 0.158542 0.016445 -0.987215
0.002437 0.058404 0.002293 0.833181 -0.049018 0.550824
0.000723 -0.000614 0.008118 0.089360 0.010891 0.995940
0.008275 -0.052321 -0.006322 0.770096 0.037413 -0.636829
-0.007028 -0.057403 -0.005032 -0.786355 -0.328076 -0.523462
0.007835 -0.052711 0.005922 0.735639 0.026601 0.676852
-0.005506 0.017043 -0.007585 -0.586796 -0.002113 -0.809732
0.004167 0.053074 -0.007784 0.548229 -0.059629 -0.834200
-0.007256 -0.038948 -0.004775 -0.855388 -0.098352 -0.508566
-0.008630 0.044833 -0.004224 -0.849955 -0.131599 -0.510155
0.007010 0.011915 -0.004894 0.877168 0.005435 -0.480152
-0.006771 -0.054285 0.004630 -0.834960 -0.015060 0.550105
0.000230 -0.044729 -0.009548 -0.057676 0.008016 -0.998303
0.005781 0.037963 -0.004532 0.824383 -0.251370 -0.507154
-0.007864 -0.011415 0.002600 -0.889638 0.063684 0.452204
-0.005212 -0.026688 0.006306 -0.683892 -0.010922 0.729501
0.001460 -0.009265 0.008138 0.136655 0.017721 0.990460
0.002593 -0.025743 0.008161 0.196960 0.010880 0.980351
0.002810 0.061793 0.001124 0.786783 0.518450 0.334938
0.001322 -0.012683 0.008198 0.122240 0.010156 0.992449
-0.000507 0.025375 0.007949 0.002055 0.018264 0.999831
-0.005058 0.000571 -0.007748 -0.418140 -0.367241 -0.830839
-0.008632 0.017694 -0.002557 -0.962024 -0.087785 -0.258463
0.006146 -0.029929 -0.007457 0.582250 0.046734 -0.811666
0.007369 -0.014487 0.004765 0.779057 0.073765 0.622599
-0.000671 0.052633 0.008539 0.051102 -0.006786 0.998670
-0.004951 0.000807 -0.007818 -0.545723 0.016321 -0.837806
-0.008932 0.046030 0.003346 -0.914039 -0.077470 0.398159
0.007975 0.008551 -0.002964 0.991112 0.072066 -0.111819
-0.001428 -0.024941 0.008222 -0.198535 0.004517 0.980083
0.009666 -0.052413 0.003101 0.922785 0.037193 0.383516
-0.003979 0.006483 -0.008352 -0.384660 -0.024347 -0.922737
-0.008471 0.021152 -0.003795 -0.924771 -0.016906 -0.380149
0.004245 0.016211 0.006618 0.715761 0.058175 0.695918
-0.002513 0.021418 -0.008824 -0.200767 0.034144 -0.979044
0.000580 -0.013804 0.008277 0.054441 0.014315 0.998414
0.006673 0.033702 -0.001541 0.979305 0.087348 -0.182569
-0.007660 0.031350 -0.004903 -0.810557 0.239306 -0.534537
-0.001958 0.044844 0.008117 -0.162576 -0.028997 0.986270
0.009277 -0.035741 -0.002659 0.978911 0.005659 -0.204207
-0.001482 0.044379 0.008107 -0.057432 -0.071143 0.995811
-0.007493 -0.005146 -0.005163 -0.859630 -0.008179 -0.510851
-0.000227 -0.056031 0.008750 -0.139323 -0.011987 0.990174
0.009630 -0.040952 -0.001352 0.995175 0.000156 -0.098118
-0.008409 0.027127 -0.003916 -0.915069 -0.006232 -0.403250
-0.006649 -0.018269 -0.006177 -0.794264 -0.034958 -0.606567
0.009460 -0.049933 -0.004136 0.920916 0.049403 -0.386617
0.004353 0.033052 0.005258 0.614566 0.314737 0.723359
0.000226 -0.040696 0.008566 -0.065156 0.017776 0.997717
-0.006023 0.061307 -0.001842 -0.964818 0.113456 -0.237180
-0.007583 0.012580 -0.005209 -0.867138 -0.004547 -0.498047
-0.002641 -0.026017 -0.008939 -0.384716 0.036584 -0.922310
0.006467 -0.029742 0.006344 0.691895 0.009088 0.721941
-0.008513 0.052809 0.004823 -0.769656 -0.103463 0.630020
-0.008631 -0.003041 -0.002098 -0.978536 -0.038647 -0.202421
0.008455 -0.020287 -0.004216 0.923675 0.031650 -0.381869
0.008876 -0.013842 -0.001858 0.992236 -0.033773 -0.119693
0.007391 -0.019850 -0.006090 0.753221 0.055242 -0.655444
0.006191 -0.056720 -0.000305 -0.882190 -0.430865 -0.189990
-0.008722 -0.017963 -0.000551 -0.998627 -0.041480 -0.032007
-0.005248 -0.024988 0.006445 -0.659521 -0.021398 0.751382
0.005951 0.013812 -0.006623 0.680424 -0.014915 -0.732667
-0.008276 0.026386 0.003260 -0.895956 -0.012495 0.443967
-0.007884 -0.004461 0.003420 -0.895699 -0.043531 0.442525
-0.008905 0.041059 -0.002325 -0.978136 -0.093273 -0.185877
0.006263 -0.034353 0.006910 0.645599 -0.083546 0.759093
0.000129 0.023073 0.007952 0.089956 0.013534 0.995854
-0.008100 -0.032602 0.001513 -0.964375 0.000630 0.264539
0.001914 -0.002577 -0.008997 0.193986 0.019641 -0.980808
0.000323 -0.006847 -0.009272 0.057943 0.014946 -0.998208
-0.009684 0.051392 0.002814 -0.953958 -0.083621 0.288049
0.006160 0.032258 -0.004439 0.794429 0.348578 -0.497370
0.008693 -0.016986 -0.003688 0.954917 0.150855 -0.255690
0.003245 -0.023748 -0.008925 0.341265 0.032175 -0.939416
0.002053 0.016332 0.007733 0.174948 0.006500 0.984556
0.004567 0.008867 0.006818 0.686145 -0.128353 0.716052
-0.007079 -0.043561 -0.004880 -0.857372 0.130493 -0.497880
0.007678 0.024555 -0.002426 0.967954 0.031365 -0.249159
0.002459 0.015887 -0.008607 0.327318 -0.001036 -0.944914
0.008832 -0.021321 -0.002334 0.981228 -0.037463 -0.189178
-0.001670 0.043143 0.007947 -0.102449 -0.100686 0.989629
0.000874 0.016020 0.007940 0.131803 0.007157 0.991250
0.001090 -0.017481 -0.009290 0.128810 0.001568 -0.991668
0.002136 -0.006187 -0.008999 0.196516 -0.017267 -0.980349
0.006923 -0.057364 -0.004203 -0.435307 -0.751974 0.495019
-0.000036 0.055980 0.008683 0.301205 0.242703 0.922156
-0.001339 0.030888 0.007726 -0.043735 0.130034 0.990545
0.004366 0.053456 0.006654 0.601118 0.006504 0.799134
0.002981 -0.019055 -0.008939 0.303297 0.004707 -0.952884
-0.003339 0.023085 0.007516 -0.316450 -0.000521 0.948609
0.003939 -0.009035 -0.008406 0.384573 -0.004943 -0.923081
-0.008143 0.009931 -0.004070 -0.911348 -0.028364 -0.410659
-0.000454 0.016588 -0.009083 0.072996 0.015218 -0.997216
0.008205 -0.032349 -0.005292 0.899120 -0.001461 -0.437699
0.005685 -0.005031 0.006025 0.792053 -0.095749 0.602896
-0.000521 -0.010926 0.008230 -0.063138 0.002979 0.998000
0.007445 0.031400 -0.001278 0.969439 0.238610 -0.057037
0.001392 0.057247 -0.004176 0.620809 0.175873 -0.763980
-0.004496 0.003447 -0.008023 -0.476100 0.056814 -0.877554
-0.002761 0.043425 0.007767 -0.259306 -0.093421 0.961266
-0.007577 -0.024128 0.003714 -0.909342 -0.079709 0.408342
-0.001187 0.032906 -0.008102 -0.087831 0.323644 -0.942094
0.007751 0.029186 -0.001079 0.987945 0.083906 -0.130097
0.007315 0.043026 -0.002333 0.968034 -0.001496 -0.250813
-0.002122 -0.015676 0.007979 -0.249390 0.000944 0.968403
-0.004630 -0.013628 -0.007883 -0.576017 0.071501 -0.814304
0.000717 0.046043 0.008004 0.154779 -0.012093 0.987875
-0.006023 0.014283 0.006506 -0.625880 -0.099463 0.773551
0.001861 0.054578 0.008219 0.362015 -0.092896 0.927532
0.002826 -0.029627 -0.009144 0.246934 0.009603 -0.968985
0.008899 -0.008692 -0.000603 0.999243 0.009559 -0.037700
-0.007889 -0.053654 0.002315 -0.962937 -0.018992 0.269058
0.009736 -0.045417 -0.002753 0.968486 0.034809 -0.246623
-0.002036 0.020745 0.007861 -0.188744 0.007656 0.981997
0.007050 0.038501 0.001652 0.972528 -0.124519 0.196685
-0.009154 0.041885 0.000089 -0.984828 -0.152931 0.082016
0.008735 -0.017118 0.002489 0.929620 0.068126 0.362169
0.005012 -0.058067 -0.007491 0.119907 -0.989350 -0.082517
-0.003444 0.023213 -0.008513 -0.336220 0.009933 -0.941731
0.008995 -0.050929 0.004293 0.863637 0.058039 0.500762
-0.003757 -0.015249 0.007519 -0.345934 0.018792 0.938071
-0.007200 -0.036898 0.004034 -0.892230 -0.023799 0.450953
-0.008589 0.047954 -0.005167 -0.842350 -0.101674 -0.529253
0.001905 0.042037 -0.008284 0.390118 -0.119243 -0.913011
0.007385 -0.043875 -0.006870 0.726655 0.088750 -0.681246
0.002987 -0.022131 -0.008996 0.288483 0.003466 -0.957479
0.001098 -0.014095 -0.009254 0.135680 0.015868 -0.990626
-0.003639 0.042095 -0.008263 -0.290584 -0.078979 -0.953584
0.003984 -0.019638 -0.008591 0.393301 -0.000642 -0.919410
0.002092 0.025223 -0.008520 0.310255 0.017793 -0.950487
0.005255 0.041382 -0.006201 0.715045 -0.073866 -0.695165
0.000976 -0.054430 0.008857 -0.016419 0.004381 0.999856
0.007519 0.047854 -0.001532 0.994563 -0.040493 -0.095944
0.009173 -0.022326 0.000769 0.992311 0.068766 0.102911
0.001270 -0.053105 0.005278 0.612526 -0.296235 -0.732842
0.006883 0.033100 0.000554 0.962078 0.245050 0.119821
0.000393 0.009360 -0.009084 0.101256 0.026237 -0.994514
-0.009981 0.052740 -0.002717 -0.962224 -0.095707 -0.254884
-0.001966 0.056615 -0.009467 -0.249401 0.840912 -0.480278
0.009560 -0.043289 -0.003163 0.953432 0.064794 -0.294566
0.002387 0.049328 -0.008495 0.738093 0.082944 -0.669582
0.007799 0.054337 -0.001930 0.987647 -0.062615 -0.143643
-0.008115 -0.025287 -0.002713 -0.972119 -0.021164 -0.233533
0.002403 -0.043665 -0.009403 0.175301 0.016814 -0.984371
0.009138 -0.032341 -0.002423 0.959503 0.045228 -0.278043
0.005247 -0.001185 0.006401 0.720223 0.344178 0.602346
-0.007783 -0.038437 -0.004056 -0.900793 -0.069330 -0.428678
-0.007286 0.026136 -0.005806 -0.788943 -0.009071 -0.614399
-0.004458 -0.006764 0.007122 -0.446913 -0.000348 0.894577
-0.008744 0.027955 -0.003034 -0.954827 -0.013024 -0.296878
-0.006966 0.056654 0.006817 -0.303727 0.724248 0.619044
0.001829 -0.049746 0.008720 0.110708 0.022225 0.993604
-0.001953 -0.053836 -0.009298 -0.319351 0.005653 -0.947620
-0.004702 -0.051871 -0.007893 -0.583153 0.001008 -0.812362
-0.007992 0.000856 0.003319 -0.838904 -0.142080 0.525408
-0.005952 0.002107 -0.006989 -0.684920 0.033667 -0.727840
0.007691 0.029036 -0.001604 0.988498 0.049288 -0.142977
0.005096 0.011131 0.006346 0.702395 -0.086094 0.706561
0.005980 0.038735 0.004249 0.737825 -0.203345 0.643634
-0.002485 0.051298 0.008343 -0.154127 -0.056562 0.986431
0.006399 -0.010562 -0.006947 0.740651 0.002582 -0.671885
0.001861 0.049591 -0.008781 0.388767 -0.078264 -0.918006
0.007707 -0.054766 0.006155 0.690276 0.026042 0.723078
-0.006490 -0.057678 0.004553 -0.686863 -0.578948 0.439361
0.006175 0.007246 0.005344 0.731670 0.087791 0.675982
0.004484 0.052359 -0.007466 0.622919 -0.058943 -0.780063
-0.002164 0.003479 0.007892 -0.226121 0.000742 0.974099
-0.007278 -0.049270 0.003721 -0.879960 -0.018648 0.474681
0.001649 0.056268 -0.004414 0.499494 0.372998 -0.781907
0.002474 -0.022033 -0.009140 0.221243 0.015236 -0.975100
-0.008409 0.027127 -0.003916 -0.915069 -0.006232 -0.403250
-0.004628 -0.052874 -0.007935 -0.575657 0.002460 -0.817687
-0.006561 -0.058252 -0.001379 0.094778 -0.995493 -0.003400
0.006074 0.043925 0.004244 0.850353 0.014032 0.526026
-0.005603 0.051294 0.007532 -0.471794 -0.076866 0.878352
-0.003474 -0.056972 0.007666 -0.476560 -0.182157 0.860064
0.000054 0.021656 0.007960 0.070857 0.006620 0.997464
0.003614 -0.052339 -0.005590 -0.451985 -0.811378 0.370642
-0.001907 0.056645 0.008810 -0.123782 0.640362 0.758034
0.000806 0.007107 0.008040 0.111388 0.007802 0.993746
0.006736 0.045557 -0.004252 0.918318 0.040491 -0.393767
0.009346 -0.049531 -0.004330 0.906818 0.054298 -0.418010
0.005330 -0.036081 -0.008283 0.560541 0.021437 -0.827849
0.007920 0.003846 -0.003661 0.942182 0.112597 -0.315618
0.002815 0.030489 -0.008038 0.414665 0.138168 -0.899424
-0.008297 -0.035269 -0.002648 -0.980251 0.009427 -0.197533
-0.008218 -0.017926 -0.003291 -0.927022 -0.028146 -0.373950
-0.001491 -0.024754 -0.009315 -0.179753 0.022580 -0.983453
0.000613 0.054883 -0.009362 0.196442 -0.085947 -0.976741
-0.006490 -0.057678 0.004553 -0.686863 -0.578948 0.439361
0.009811 -0.050460 -0.003271 0.948774 0.080812 -0.305446
-0.001428 -0.024941 0.008222 -0.198535 0.004517 0.980083
0.003058 -0.019924 -0.008920 0.312090 -0.005040 -0.950039
0.003462 0.015083 -0.008176 0.435908 0.046283 -0.898800
-0.003105 -0.053610 0.007875 -0.444662 0.006153 0.895677
-0.001908 0.028751 -0.008832 -0.126620 0.021614 -0.991716
0.006421 -0.011351 0.005165 0.618983 0.048845 0.783884
0.007089 0.044163 -0.002778 0.972367 -0.007437 -0.233339
-0.006273 0.055923 0.007353 -0.503675 0.173931 0.846203
0.008364 -0.011563 0.003201 0.921929 -0.021851 0.386742
0.007990 -0.002732 -0.004024 0.916797 0.007216 -0.399288
-0.007663 -0.046156 0.002908 -0.942028 -0.001854 0.335530
-0.001685 0.011464 0.007955 -0.158502 0.011784 0.987288
-0.000471 -0.012312 -0.009300 -0.047408 -0.014282 -0.998774
-0.006765 0.038708 0.004892 -0.763117 -0.108932 0.637013
0.001627 0.037958 0.007119 0.300810 -0.169194 0.938556
-0.008132 0.022710 0.003482 -0.873696 -0.000614 0.486473
-0.007887 -0.051393 0.002190 -0.959453 0.012904 0.281572
0.008163 0.002999 -0.003124 0.971386 0.027002 -0.235965
0.009321 -0.047609 -0.004158 0.910226 0.013031 -0.413906
-0.005529 0.032041 0.005914 -0.576318 0.314633 0.754231
-0.001178 0.031419 0.007656 -0.045087 0.230429 0.972044
-0.001364 -0.049188 0.008436 -0.243642 0.017352 0.969710
0.000388 0.051567 -0.009272 0.160743 -0.090293 -0.982858
-0.006887 -0.057881 0.003456 -0.562314 -0.779818 0.275113
0.007068 -0.057313 -0.003937 -0.479138 -0.700682 0.528651
-0.001706 -0.001573 0.008012 -0.182829 0.010137 0.983092
-0.003047 -0.004652 0.007681 -0.295643 0.004019 0.955290
0.004694 0.027550 -0.007024 0.629916 0.017482 -0.776467
-0.008493 -0.002566 0.001458 -0.976678 -0.047635 0.209360
0.001500 0.047761 -0.008843 0.248486 -0.067106 -0.966308
0.008119 -0.020005 -0.005085 0.876346 0.053349 -0.478719
0.005460 -0.049550 -0.008516 0.489295 0.039763 -0.871211
0.005948 -0.018478 0.006445 0.658484 0.053041 0.750724
-0.002122 -0.031715 -0.009137 -0.226324 0.024125 -0.973753
-0.006943 0.000965 0.004912 -0.838192 -0.096127 0.536837
0.002168 -0.039000 -0.009383 0.111654 0.041215 -0.992892
0.000821 -0.037312 -0.009596 0.023090 0.013885 -0.999637
0.005005 -0.057874 -0.006587 -0.250673 -0.847808 0.467317
0.000978 0.030391 0.007641 0.208931 0.117246 0.970877
-0.007831 -0.020278 -0.004441 -0.945228 0.021743 -0.325685
0.003194 0.050029 -0.008210 0.391343 -0.032489 -0.919671
-0.002347 -0.056326 0.008179 -0.364509 -0.048294 0.929947
0.009552 -0.041860 -0.002558 0.984252 0.069110 -0.162699
0.003979 0.028117 -0.007542 0.545491 0.016974 -0.837945
0.010100 -0.057424 -0.001910 0.793250 -0.588391 -0.156688
0.007380 -0.056524 0.006494 0.646083 -0.082621 0.758782
-0.009129 0.046630 -0.003690 -0.931228 -0.124513 -0.342506
-0.007255 -0.049109 0.003775 -0.879797 0.219386 0.421694
-0.007371 0.019391 0.004778 -0.778889 -0.037378 0.626047
-0.001178 0.031419 0.007656 -0.045087 0.230429 0.972044
0.003577 -0.038303 0.008153 0.189512 0.000069 0.981878
-0.000039 0.027873 -0.008903 0.075623 0.013925 -0.997039
0.005583 0.024846 -0.006329 0.722354 0.028970 -0.690916
-0.008676 0.044174 0.003539 -0.829224 -0.217571 0.514831
-0.006079 0.034412 -0.005591 -0.689301 -0.062538 -0.721771
-0.008718 0.053453 -0.005590 -0.809028 -0.056579 -0.585040
0.008006 -0.018509 0.004282 0.853800 0.147402 0.499298
0.003962 0.006833 0.007407 0.460936 0.034469 0.886764
0.008364 -0.004247 0.002567 0.946989 0.000901 0.321265
0.005283 -0.043929 0.007464 0.487327 0.025861 0.872837
-0.000749 0.004535 0.008096 -0.068284 0.004414 0.997656
0.004884 0.039481 0.005434 0.741390 -0.027976 0.670491
0.007576 0.029383 -0.002206 0.975675 0.047711 -0.213967
0.007556 0.047058 -0.001019 0.998773 -0.028029 -0.040834
0.005440 0.016676 0.005519 0.660029 0.161425 0.733692
-0.008980 0.029078 0.001302 -0.979299 0.028078 0.200464
0.005515 -0.057230 -0.003864 0.038296 -0.846226 0.531446
0.007394 -0.008709 -0.005625 0.817380 0.034077 -0.575091
-0.000047 0.048030 0.008147 0.127743 -0.087459 0.987944
0.005664 0.052798 -0.006369 0.770061 -0.036440 -0.636929
-0.000940 0.031720 -0.008542 -0.029993 0.253453 -0.966883
-0.007657 -0.021909 0.003502 -0.933066 -0.038415 0.357648
-0.005586 0.052450 0.007428 -0.461118 -0.064718 0.884975
0.004149 0.030558 0.006242 0.560564 0.132318 0.817472
-0.003114 -0.025855 0.007749 -0.252689 -0.038470 0.966782
0.001747 0.018730 0.007778 0.162799 0.017414 0.986506
0.007724 -0.037703 0.005247 0.765188 0.144872 0.627296
-0.002520 0.022468 -0.008792 -0.217977 0.012065 -0.975879
0.002957 0.060550 0.000984 0.943246 0.061012 0.326442
-0.004297 0.002988 -0.008119 -0.414029 0.039663 -0.909399
-0.000789 -0.056009 0.008662 -0.197791 -0.008866 0.980204
0.007806 -0.050008 0.005798 0.725987 0.074367 0.683676
0.005194 0.046741 0.005540 0.702596 -0.011529 0.711496
-0.006717 0.026995 -0.006443 -0.707034 -0.004399 -0.707165
0.001667 0.031944 -0.008114 0.276300 0.280691 -0.919169
0.001337 0.013818 -0.008868 0.159781 -0.018117 -0.986986
0.001070 0.022646 -0.008815 0.192426 0.011775 -0.981241
-0.005706 0.018160 -0.007329 -0.576700 0.056500 -0.815000
0.007635 0.019636 0.000612 0.994644 0.004618 0.103258
0.003883 -0.044656 -0.009047 0.312870 0.014299 -0.949688
0.007659 -0.037263 0.005245 0.764108 0.086492 0.639264
-0.007676 -0.031761 -0.004287 -0.920868 0.020199 -0.389352
-0.006534 0.007355 0.005596 -0.699144 0.131554 0.702774
0.004196 0.049821 0.006387 0.572706 -0.016949 0.819585
0.009336 -0.018500 0.000192 0.994344 0.105285 -0.013995
-0.002196 -0.045209 -0.009079 -0.318458 0.011510 -0.947867
-0.009877 0.049084 -0.001638 -0.988623 -0.067341 -0.134499
0.009872 -0.048671 -0.002695 0.967680 0.056191 -0.245842
0.001307 0.062437 0.000084 0.043885 0.998007 0.045354
-0.008758 0.016993 0.001773 -0.950335 -0.131433 0.282116
0.003364 0.012559 -0.008252 0.442628 0.009527 -0.896655
-0.004386 -0.056725 -0.002943 0.651352 -0.730395 -0.205581
0.002774 0.038858 -0.007501 0.435514 -0.137177 -0.889669
0.006520 0.041501 0.003520 0.896442 0.018825 0.442762
0.002496 -0.042891 -0.009380 0.147745 0.025391 -0.988699
0.007342 -0.007238 0.004519 0.795994 0.034438 0.604324
0.003321 0.012566 0.007412 0.402701 0.054838 0.913687
-0.000035 -0.001117 0.008154 0.005242 0.009613 0.999940
-0.009250 0.055921 0.004477 -0.903636 0.344301 0.254752
-0.002774 0.024182 -0.008726 -0.250137 0.002009 -0.968208
0.008509 -0.025954 -0.004120 0.942323 -0.042158 -0.332039
-0.002754 0.054831 -0.006835 0.147945 0.890339 0.430591
0.001476 0.058239 -0.003968 0.694795 0.000046 -0.719208
0.002295 0.023716 -0.008473 0.329201 0.029038 -0.943813
-0.001528 0.056834 0.004302 -0.108648 0.457341 0.882629
-0.006431 0.002953 0.005781 -0.724567 0.049803 0.687402
0.000892 -0.051995 0.003387 0.039655 -0.993151 -0.109904
-0.006753 -0.047366 -0.005620 -0.834517 -0.002366 -0.550977
0.003488 -0.029976 -0.008956 0.283183 0.016975 -0.958916
0.008528 -0.025464 -0.004210 0.951915 -0.025958 -0.305260
0.003271 -0.013920 -0.008775 0.317162 -0.012046 -0.948295
0.004827 -0.055026 -0.008985 0.390477 0.008878 -0.920570
0.000129 0.023073 0.007952 0.089956 0.013534 0.995854
0.009892 -0.047466 -0.002365 0.981141 0.045641 -0.187826
-0.007815 0.006421 -0.004797 -0.829153 0.056571 -0.556151
-0.003993 0.001889 -0.008393 0.000000 0.000000 0.000000
0.001487 -0.053112 -0.009731 0.065794 0.015235 -0.997717
-0.004951 0.000807 -0.007818 -0.545723 0.016321 -0.837806
-0.000372 0.019591 0.007998 0.026065 -0.011531 0.999594
-0.004227 -0.031669 0.007316 -0.607360 -0.017429 0.794235
-0.001276 0.003659 0.008052 -0.122146 0.003736 0.992505
-0.001567 0.028060 -0.008876 -0.099839 0.019199 -0.994818
0.002114 -0.015285 -0.009116 0.163209 0.012227 -0.986516
0.003240 0.009921 0.007545 0.327026 0.005974 0.944997
-0.004093 -0.037963 0.006998 -0.654923 0.138384 0.742917
-0.004798 0.032128 -0.007349 -0.494016 0.287545 -0.820528
0.002815 0.030489 -0.008038 0.414665 0.138168 -0.899424
-0.002171 0.033621 0.006794 -0.209469 0.228167 0.950822
-0.003603 -0.056453 -0.003398 0.003663 -0.949523 0.313676
-0.008529 -0.026608 -0.000059 -0.977985 -0.021486 0.207567
-0.005932 0.049750 0.006975 -0.564212 -0.064364 0.823117
0.002287 0.062513 -0.000764 0.211108 0.976313 0.047395
-0.007534 -0.056151 0.003183 -0.914984 -0.049395 0.400456
-0.008736 -0.017533 0.000403 -0.993176 0.008729 0.116295
0.006352 0.023530 -0.005411 0.824644 0.026153 -0.565047
-0.003864 -0.057735 0.004052 0.672723 -0.694747 -0.254501
0.002227 -0.057960 -0.008937 0.077691 -0.928879 -0.362144
-0.001919 -0.028380 0.008106 -0.256285 0.010827 0.966541
-0.007676 -0.031761 -0.004287 -0.920868 0.020199 -0.389352
0.007108 -0.050936 -0.007427 0.666632 0.039838 -0.744322
0.009211 -0.041317 -0.003920 0.958185 -0.051019 -0.281564
0.008876 -0.013842 -0.001858 0.992236 -0.033773 -0.119693
-0.007919 -0.040112 -0.004013 -0.932141 0.052583 -0.358257
0.007409 0.024587 -0.003311 0.939805 0.025716 -0.340742
0.003478 -0.034277 -0.009016 0.275724 0.014842 -0.961122
-0.000725 -0.036516 0.008426 -0.152036 0.006514 0.988354
0.008385 -0.033225 0.004237 0.872210 0.012038 0.488983
0.009618 -0.051002 0.003051 0.925115 0.051877 0.376127
0.003337 -0.032271 -0.009028 0.277877 0.000175 -0.960617
0.002819 0.016605 -0.008414 0.389910 0.024452 -0.920528
-0.003113 -0.026621 0.007744 -0.295663 0.011625 0.955222
0.003552 0.056706 -0.001305 0.653004 0.750085 -0.104680
0.001282 0.028891 -0.008674 0.231293 0.028273 -0.972473
0.002764 0.027167 0.007203 0.392149 0.014043 0.919794
0.005370 0.052631 0.005869 0.631425 0.108502 0.767808
0.005117 0.016504 0.005930 0.684414 0.125067 0.718286
-0.007119 -0.035765 -0.005355 -0.883767 -0.001414 -0.467925
0.000464 -0.021699 0.008370 0.013964 0.010988 0.999842
0.002924 -0.039583 -0.009278 0.228780 -0.068330 -0.971077
-0.008565 0.039242 0.002140 -0.944165 -0.115052 0.308733
