0.026532 -0.060626 -0.014613 -0.149819 -0.190633 -0.970162
0.006987 -0.112901 -0.006041 0.028034 -0.999219 0.027863
-0.034930 0.025927 -0.013556 -0.106407 -0.697477 -0.708663
-0.031359 0.061750 0.019172 -0.034692 0.770443 0.636564
0.034444 -0.005496 -0.015345 0.289764 0.005708 -0.957081
0.054319 -0.097849 0.022251 -0.021926 0.864503 0.502149
0.045430 -0.008406 -0.000609 0.972274 0.230611 -0.038745
0.048874 -0.111930 0.007133 0.167417 -0.984245 0.056870
-0.010955 -0.113380 0.005987 0.073231 -0.997306 0.004292
0.020402 0.062690 0.020671 0.968407 -0.208374 0.136999
-0.017786 0.057301 0.023437 -0.044945 0.439419 0.897157
0.052945 0.058939 0.016073 -0.018469 0.605906 0.795322
-0.014817 -0.080037 0.013437 -0.427566 0.863598 0.267180
0.058655 -0.096855 0.009178 0.937895 0.346414 -0.018716
-0.008081 0.044817 -0.023037 -0.477049 -0.024682 -0.878530
-0.026254 -0.094085 0.025688 -0.074250 0.390326 0.917678
-0.029119 0.044762 -0.024593 -0.331851 -0.043057 -0.942349
0.002418 -0.106826 0.030691 0.003313 -0.025370 0.999673
0.012335 -0.003232 -0.014586 -0.247930 -0.006598 -0.968755
-0.009543 -0.013650 -0.004442 -0.202898 -0.825143 -0.527229
0.007011 -0.013081 -0.012304 -0.269385 -0.127266 -0.954586
-0.012046 0.066946 -0.009452 0.454817 0.864344 -0.214594
-0.045821 0.025936 -0.011812 -0.756670 -0.530020 -0.382792
0.011631 -0.079057 -0.008292 -0.154622 0.958338 -0.240168
0.002918 0.066299 -0.014897 -0.016519 0.996722 -0.079203
0.006133 -0.000719 -0.012922 -0.287734 -0.031002 -0.957209
-0.000921 0.036674 -0.023612 -0.014241 -0.354508 -0.934944
0.058651 -0.093077 -0.006724 0.989411 -0.023852 -0.143164
0.045138 -0.018812 0.010405 0.741605 0.248996 0.622915
0.004067 -0.078631 0.001479 0.137379 0.988015 -0.070382
-0.020389 0.016903 -0.010114 -0.144153 -0.011774 -0.989485
-0.068391 0.066477 0.000369 -0.045811 0.998015 -0.043212
0.070596 0.044314 0.019176 -0.222847 -0.075097 0.971957
0.081970 0.041781 0.006257 0.988578 0.079323 -0.128143
0.016266 0.038278 -0.024636 -0.017862 -0.283517 -0.958801
0.048066 -0.035730 0.011862 0.624056 0.024920 0.780983
0.048615 0.017815 0.012016 0.025251 -0.140909 0.989700
0.060490 0.055660 0.014935 0.145067 -0.232775 0.961650
0.052683 0.052630 -0.023035 0.063016 0.625492 -0.777682
-0.003407 -0.113688 -0.015406 0.049751 -0.988869 0.140228
0.054518 -0.103147 -0.021230 0.553397 -0.417329 -0.720825
0.010639 0.004547 0.013450 -0.191346 0.027374 0.981141
0.035230 -0.049406 0.016775 0.122262 -0.024884 0.992186
0.029191 -0.112304 -0.004421 0.002919 -0.999855 0.016799
0.021107 0.026054 0.013053 0.246493 -0.309283 0.918469
-0.002428 0.019616 -0.017453 -0.455263 0.877148 -0.152797
-0.046868 0.027057 0.009423 -0.574722 -0.739096 0.351328
-0.004855 0.039065 0.022818 -0.379746 -0.256322 0.888871
-0.013447 -0.000574 -0.005435 -0.763602 -0.228721 -0.603820
0.048675 -0.034868 -0.008653 -0.203813 -0.440904 -0.874107
0.004719 -0.017976 -0.008757 -0.479794 -0.701063 -0.527550
0.008562 0.055703 0.021190 0.029581 0.390170 0.920268
0.081748 0.044200 0.009314 0.988069 -0.018913 0.152844
0.050529 -0.091375 0.022850 0.415924 0.281330 0.864790
-0.019878 0.015045 0.010918 -0.060223 0.002985 0.998180
0.053026 -0.047041 -0.004892 0.952310 0.057288 -0.299707
0.022011 0.014470 -0.015134 -0.031081 0.074304 -0.996751
0.020402 0.062690 0.020671 0.968407 -0.208374 0.136999
-0.072517 0.060539 -0.012050 -0.208104 0.850565 -0.482941
-0.094165 0.046168 0.015687 -0.571270 -0.022130 0.820464
-0.022355 -0.082127 -0.002899 -0.045641 0.982970 -0.178006
-0.012428 0.059311 0.020417 0.751022 -0.101094 0.652492
-0.080623 0.032813 0.015073 -0.007502 -0.866813 0.498576
0.068088 0.032681 -0.021399 0.115281 -0.569568 -0.813819
-0.008481 0.067760 -0.005029 -0.006793 0.978154 -0.207772
-0.006701 -0.014077 -0.006931 -0.744505 -0.064542 -0.664490
0.058687 -0.102932 0.002217 0.982100 -0.188358 -0.001125
0.024768 0.056446 -0.023739 -0.020552 0.578276 -0.815582
0.019578 -0.111488 0.027694 0.012180 -0.896932 0.442001
-0.000589 0.060547 0.021034 -0.031949 -0.696609 0.716739
-0.008869 0.037369 0.020022 -0.009964 -0.374692 0.927096
0.005522 -0.112537 0.025175 0.030551 -0.982965 0.181236
-0.034514 0.031028 -0.018986 -0.093044 -0.753603 -0.650712
0.018429 0.026103 0.016004 0.664488 -0.734089 0.139888
0.018555 0.008392 -0.015600 -0.104316 0.063270 -0.992530
0.077588 0.046851 -0.021826 0.704565 0.076560 -0.705498
-0.009947 -0.080668 -0.009745 0.434356 0.852957 -0.289482
0.018619 -0.074253 -0.008364 -0.706267 0.070898 -0.704386
0.052837 -0.080556 0.001845 0.920744 -0.306236 -0.241764
-0.009175 0.067127 0.016628 -0.255205 0.917261 0.305782
-0.089175 0.029636 -0.000811 -0.510237 -0.849732 -0.132712
0.077949 0.034140 -0.017219 0.386329 -0.834929 -0.391974
-0.041419 -0.103278 0.022102 -0.911919 0.253612 0.322621
-0.013964 0.050614 0.025492 0.345668 0.059314 0.936480
-0.000843 -0.112970 0.001395 0.032936 -0.998813 0.035877
0.081606 0.040863 -0.011993 0.993084 0.065225 -0.097617
0.020637 -0.088784 0.023487 0.010087 0.568816 0.822403
0.001482 0.017143 0.017985 0.035790 -0.586280 0.809318
-0.006751 0.054989 -0.022929 -0.611173 0.306402 -0.729784
-0.023694 0.065899 -0.016932 -0.066593 0.765423 -0.640072
-0.026433 -0.113196 -0.020763 -0.050421 -0.789294 -0.611942
-0.094286 0.039455 -0.010301 -0.564136 -0.442260 -0.697249
0.024346 0.041930 -0.025713 -0.030844 -0.137186 -0.990065
0.051211 -0.068937 -0.005829 0.897118 -0.039237 -0.440045
0.023241 -0.112522 -0.007827 0.024244 -0.998768 0.043295
0.017256 -0.112964 -0.015329 -0.004612 -0.989669 0.143300
0.052975 0.050998 0.018645 0.084880 -0.012019 0.996319
0.037711 -0.105950 0.029776 0.045515 0.062601 0.997000
0.004390 -0.000555 0.011792 -0.256621 0.029217 0.966070
0.022774 0.008829 0.014543 0.013458 0.129103 0.991540
-0.053204 0.032807 -0.015210 0.011452 -0.632305 -0.774635
-0.012089 0.064291 -0.018949 -0.220614 0.698965 -0.680278
-0.024280 -0.083794 -0.009498 -0.063277 0.935303 -0.348144
-0.069680 0.039306 -0.017872 -0.193996 -0.439937 -0.876824
0.010597 -0.088256 0.023126 0.028625 0.340414 0.939840
-0.045565 -0.105159 0.004254 -0.967403 0.252946 0.012233
0.033789 -0.081129 0.020605 0.113288 0.745884 0.656371
-0.006571 0.048699 0.021759 -0.434914 0.095682 0.895374
-0.027206 0.042882 -0.025675 -0.302752 -0.119412 -0.945559
-0.046593 0.056329 -0.019507 -0.860639 0.268449 -0.432708
0.035455 0.017540 -0.015297 -0.000962 -0.006946 -0.999975
0.057883 -0.104508 -0.007306 0.946705 -0.319660 -0.039577
-0.059729 0.067020 0.006737 -0.033926 0.969521 0.242650
0.056472 -0.102980 0.019943 0.886865 -0.269943 0.374968
0.043200 -0.108531 -0.020359 0.083943 0.958733 -0.271634
-0.003863 0.034647 -0.022421 -0.063514 -0.362926 -0.929651
0.057602 0.051923 -0.023741 -0.013055 0.457396 -0.889167
-0.018031 0.005456 -0.000885 -0.688637 -0.723928 -0.041320
0.013852 0.018473 -0.014523 -0.096889 0.039309 -0.994519
0.069735 0.021685 0.001334 0.884920 -0.408894 0.222986
0.056095 0.035011 -0.020876 -0.084463 0.466992 -0.880218
0.007011 -0.013081 -0.012304 -0.269385 -0.127266 -0.954586
0.045998 -0.010528 0.001162 0.971940 0.228066 0.057598
-0.004315 0.022901 0.010899 -0.054812 -0.007547 0.998468
0.019756 -0.076863 0.013600 -0.468033 0.665514 0.581408
-0.007022 0.025050 -0.019709 -0.091308 -0.995091 -0.038172
0.047434 0.041440 0.020627 0.085752 -0.259379 0.961961
-0.019120 0.006405 0.001253 -0.529694 -0.844699 0.076865
0.028216 -0.111930 0.025479 0.034422 -0.969582 0.242333
0.006802 0.028670 -0.024935 -0.078241 0.023174 -0.996665
0.036590 -0.006403 0.013419 0.404844 0.108261 0.907954
-0.025849 0.027469 -0.018051 -0.193558 -0.696315 -0.691145
0.003396 -0.084265 0.023456 0.009285 0.313646 0.949495
0.041558 -0.054914 -0.014851 0.243887 -0.038566 -0.969036
-0.043210 -0.101017 -0.006689 -0.950265 0.256279 -0.176969
0.021863 0.067713 0.007000 0.223674 0.912488 0.342543
0.071998 0.030311 -0.018923 0.697946 -0.397792 -0.595512
0.015652 0.033660 0.020120 -0.010238 0.091670 0.995737
-0.099027 0.055926 0.004830 -0.579298 0.806693 0.116878
-0.057686 0.033569 0.017564 0.052576 -0.597572 0.800089
-0.080341 0.066341 0.003240 -0.063114 0.945146 0.320494
0.045758 0.068022 -0.005426 0.032905 0.990837 -0.130995
0.016426 0.066108 -0.017176 0.093821 0.993549 -0.063705
0.029362 -0.037981 0.016896 0.007850 0.004002 0.999961
0.034459 0.029763 0.014439 0.028320 -0.607982 0.793445
-0.041199 -0.093577 -0.004985 -0.932668 0.327303 -0.151667
0.073961 0.024109 -0.002578 0.454160 -0.890904 0.005406
0.028466 -0.025184 0.016981 -0.006158 -0.000731 0.999981
0.051728 -0.104171 -0.022275 0.614266 0.055982 -0.787111
-0.091148 0.051058 0.016688 -0.496842 0.231393 0.836424
-0.023701 0.071888 -0.003178 -0.086075 0.989503 -0.116081
0.053384 -0.109166 -0.011399 0.651357 -0.752309 -0.098821
-0.094286 0.039455 -0.010301 -0.564136 -0.442260 -0.697249
-0.055820 0.047854 0.021897 0.058376 0.076436 0.995364
0.019111 -0.043577 0.015709 -0.315776 -0.052324 0.947390
0.035055 -0.053753 0.016607 0.108536 -0.030464 0.993626
-0.012352 -0.102292 0.029637 -0.025363 0.278291 0.960162
0.010715 -0.018162 0.012999 -0.437121 -0.242100 0.866206
-0.060847 0.041512 -0.019561 0.015451 -0.252984 -0.967347
-0.092610 0.054846 -0.010552 -0.568234 0.460925 -0.681659
0.027346 -0.112369 -0.023397 0.012665 -0.874956 -0.484037
0.024011 0.029301 -0.017892 0.049356 -0.684443 -0.727394
0.004722 0.066928 -0.008326 -0.359656 0.912645 -0.194234
-0.039367 -0.113190 0.021996 -0.368867 -0.913493 0.171659
0.051039 -0.089920 -0.019723 0.487644 0.370484 -0.790535
0.074224 0.025054 -0.008908 0.450828 -0.853511 -0.261289
-0.012840 0.032911 -0.019352 0.483196 0.215401 -0.848601
-0.027999 0.010880 -0.003031 -0.519560 -0.843310 -0.137424
-0.078019 0.059457 0.016428 -0.014784 0.750606 0.660584
-0.038052 0.025817 0.014266 -0.045663 -0.712657 0.700025
0.014550 -0.078417 0.012922 -0.182726 0.950501 0.251315
0.075468 0.024905 -0.005941 0.524763 -0.836417 -0.158210
0.011155 -0.111833 0.019317 0.002808 -0.998511 -0.054486
-0.058708 0.041914 0.021597 0.047530 -0.233469 0.971202
0.006751 -0.032619 -0.002837 -0.976427 -0.057865 -0.207946
0.021627 -0.038281 0.016596 -0.203951 -0.038159 0.978237
-0.036533 -0.114594 -0.009626 0.010616 -0.999920 0.006903
-0.018912 -0.096887 -0.020353 -0.251771 0.292437 -0.922547
0.009824 0.066294 0.021305 -0.003483 0.832100 0.554614
-0.012135 0.069055 -0.002692 0.716916 0.679472 -0.156044
0.044808 0.006142 0.004974 0.812427 -0.436681 0.386358
0.033261 -0.095326 0.027000 0.060927 0.279745 0.958139
-0.019353 0.006717 -0.004119 -0.377915 -0.875993 -0.299695
0.047773 -0.101616 0.027193 0.311343 0.223511 0.923639
-0.001374 0.025886 0.016283 -0.004089 -0.996518 0.083282
-0.024504 0.016382 0.009338 -0.503178 0.037930 0.863350
-0.007659 0.055559 -0.021109 -0.637328 0.418366 -0.647135
-0.015198 0.032631 -0.022717 0.364107 -0.362239 -0.858026
0.055284 0.056123 0.015688 0.229575 -0.801212 0.552590
-0.012430 0.057614 -0.020033 0.527823 -0.183111 -0.829381
0.078053 0.031126 0.009192 0.711381 -0.549667 0.437954
0.055206 0.047136 -0.021642 -0.107084 0.445599 -0.888805
0.045496 -0.075370 0.013448 0.452067 0.185336 0.872517
0.081630 0.049385 0.002500 0.965767 -0.223021 0.132494
0.050664 -0.033347 0.007484 0.888824 0.189109 0.417407
-0.040371 0.022404 -0.006381 -0.060858 -0.972557 -0.224563
-0.006041 0.065515 -0.023408 -0.062024 0.867629 -0.493328
-0.002149 0.044773 0.023747 0.045169 -0.051226 0.997665
-0.046689 0.041492 -0.021542 -0.803133 -0.159521 -0.574048
0.041894 -0.103037 -0.025117 0.485683 -0.248193 -0.838160
-0.043076 0.065938 -0.013613 -0.133145 0.706281 -0.695299
0.007967 -0.020325 0.009193 -0.720260 -0.402032 0.565328
0.037553 -0.013135 -0.015349 0.407707 0.137817 -0.902653
0.025854 0.061367 0.015353 0.097707 0.697483 0.709909
0.007104 -0.102790 0.029960 -0.016368 0.258314 0.965922
-0.096114 0.057719 -0.003554 -0.780294 0.595203 -0.192027
-0.041445 -0.100548 -0.013772 -0.913793 0.284243 -0.290150
-0.034207 -0.082299 0.004379 -0.246127 0.969137 -0.013982
0.045326 -0.088862 0.023953 0.200978 0.369558 0.907213
-0.065530 0.027547 -0.009038 -0.315643 -0.826200 -0.466651
0.070176 0.025739 -0.013777 0.281616 -0.800540 -0.528988
0.044861 -0.099617 -0.024208 0.118600 0.214510 -0.969494
0.040383 -0.092385 -0.022783 0.054655 0.290392 -0.955346
0.011206 -0.109209 0.030150 0.028378 -0.421764 0.906261
-0.095342 0.059738 0.003736 -0.659344 0.749330 0.061406
-0.003850 0.038112 -0.024079 -0.037259 -0.353052 -0.934862
-0.041667 0.038642 0.023795 -0.105569 -0.316184 0.942806
-0.093655 0.056771 -0.007814 -0.544524 0.604073 -0.581884
-0.005979 -0.089114 -0.018038 -0.068946 0.132114 -0.988834
0.029784 -0.012674 0.016234 0.077380 0.019875 0.996804
0.042385 0.047491 -0.024915 -0.022156 0.056257 -0.998170
0.024588 -0.113255 -0.017841 0.013736 -0.997698 0.066412
-0.064738 0.067209 -0.004356 -0.253159 0.923516 -0.288148
0.042819 -0.069500 -0.012622 0.304660 -0.104072 -0.946758
0.049770 -0.025517 -0.003019 0.972946 0.128703 -0.191864
-0.073479 0.057913 0.017887 -0.014136 0.333798 0.942538
0.015418 0.052655 -0.024768 -0.024221 0.269894 -0.962586
-0.043489 -0.113727 0.001200 -0.398873 -0.916986 -0.005980
0.004971 0.013177 -0.013312 -0.197333 -0.073320 -0.977591
-0.015176 0.068631 0.013307 0.208787 0.846385 0.489940
0.020967 -0.003656 0.015528 -0.093674 0.070476 0.993105
0.046043 0.006021 -0.000350 0.827596 -0.561175 0.012946
0.008646 -0.030635 -0.008249 -0.856139 -0.076045 -0.511119
-0.007764 0.047336 -0.023304 -0.661712 0.070898 -0.746398
0.080857 0.041977 0.004474 0.924893 0.344364 0.161206
0.030337 -0.029598 -0.017181 -0.021302 -0.027001 -0.999408
0.032249 -0.065354 -0.014394 -0.024622 -0.141951 -0.989567
0.009685 -0.050214 -0.004804 -0.912814 -0.189303 -0.361849
0.033658 0.065158 0.010220 0.025891 0.864315 0.502284
0.011463 -0.077341 -0.000813 -0.380643 0.912430 -0.150277
0.027140 -0.037691 -0.016492 -0.048531 -0.068774 -0.996451
0.020637 -0.088784 0.023487 0.010087 0.568816 0.822403
0.046010 -0.079087 -0.012426 0.435172 0.347792 -0.830461
0.054414 -0.105724 -0.018861 0.835584 -0.383584 -0.393271
-0.090329 0.062372 0.006139 -0.497219 0.836832 0.229095
-0.015886 0.010540 -0.008021 -0.064538 -0.672683 -0.737111
-0.052828 0.029556 0.013026 0.038838 -0.811602 0.582919
0.012924 -0.058215 -0.007249 -0.823433 -0.247635 -0.510524
-0.060355 0.026061 0.006687 -0.005279 -0.956127 0.292905
0.017138 0.061963 -0.026059 0.210374 -0.088072 -0.973646
0.027125 -0.096057 0.028007 -0.006155 0.329271 0.944215
0.015005 -0.067285 -0.004980 -0.900883 -0.222014 -0.372988
0.004377 -0.010345 -0.011936 -0.187400 0.075767 -0.979357
0.003855 0.025272 -0.022912 -0.052206 -0.876138 -0.479226
-0.011730 0.007189 0.008125 -0.034245 0.013000 0.999329
0.030234 0.067342 -0.008438 0.003587 0.957654 -0.287901
0.051088 0.037169 0.017057 0.410039 0.021588 0.911812
0.055700 0.062478 -0.017895 0.004871 0.762189 -0.647336
0.023996 -0.098262 0.028693 -0.004137 0.290899 0.956745
-0.016886 -0.113997 -0.010481 0.015775 -0.999848 0.007369
0.077336 0.037884 -0.020546 0.699441 -0.339049 -0.629149
0.033961 0.045429 0.022396 0.014670 -0.008634 0.999855
-0.039038 -0.092039 0.018135 -0.894507 0.346956 0.281919
0.009583 0.066133 -0.015922 0.004209 0.990476 -0.137621
0.049471 0.012898 0.009451 0.167662 -0.679666 0.714104
0.048427 0.029997 0.014335 0.043675 -0.636050 0.770411
-0.008984 0.062057 0.021598 -0.574157 0.148039 0.805251
0.026980 -0.018048 0.016814 0.054985 0.091446 0.994291
0.074504 0.055180 -0.014448 0.257539 0.650392 -0.714608
-0.017212 -0.113918 -0.001605 0.027114 -0.999491 0.016784
0.046745 -0.056654 -0.012609 0.540864 0.019253 -0.840890
-0.016812 0.061678 0.020938 -0.017746 0.598896 0.800630
0.004881 -0.100202 0.029199 -0.009743 0.280206 0.959890
-0.000906 0.053984 -0.024092 -0.015289 0.332052 -0.943137
-0.041713 -0.092876 0.004722 -0.935714 0.352286 0.018271
-0.017315 0.030889 -0.021715 -0.005339 -0.570865 -0.821027
-0.024133 0.039589 -0.025281 -0.088570 -0.264159 -0.960404
-0.061927 0.067316 -0.000224 0.121136 0.990515 -0.064862
0.019895 -0.079596 0.019530 -0.076589 0.856851 0.509843
0.007689 0.066742 0.020577 0.010134 0.921647 0.387897
-0.002767 0.002283 -0.010575 -0.606686 -0.107366 -0.787658
-0.005940 0.006555 -0.007355 -0.434139 -0.288775 -0.853307
-0.045947 0.027993 -0.014449 -0.603203 -0.586829 -0.540164
-0.043500 -0.107886 -0.013451 -0.959122 0.092017 -0.267616
0.004617 -0.016831 0.009998 -0.403884 -0.685252 0.606059
-0.013729 0.070228 0.009690 0.511942 0.802145 0.307375
0.045352 0.010384 -0.011826 0.287948 -0.675601 -0.678712
0.002640 -0.078873 -0.004396 -0.025765 0.985801 -0.165928
0.046283 0.068089 0.000362 0.039340 0.995633 0.084659
0.052724 -0.041799 -0.001711 0.987120 0.097316 -0.126982
0.016969 -0.112061 0.005578 0.026785 -0.998909 0.038261
-0.003015 0.067035 0.016591 0.017932 0.999642 0.019838
-0.022000 -0.082846 0.014619 -0.023289 0.963122 0.268055
-0.034589 0.021567 -0.004500 -0.092774 -0.994782 0.042439
-0.034847 0.030235 0.018401 -0.049948 -0.653171 0.755562
-0.026303 -0.081677 0.002784 -0.066125 0.997084 -0.038094
0.014734 -0.047295 -0.011980 -0.570276 0.341221 -0.747231
-0.056844 0.067012 0.005216 0.027378 0.984826 0.171372
-0.055569 0.041477 0.021290 0.054702 -0.242372 0.968640
-0.047296 0.053697 -0.018848 -0.587183 0.311041 -0.747308
-0.066353 0.036410 -0.017288 -0.352070 -0.469948 -0.809442
0.027085 -0.111861 0.007479 0.016174 -0.999727 0.016847
0.002576 0.054161 -0.023848 -0.025807 0.371877 -0.927923
-0.004505 0.047942 0.023845 -0.326700 0.059227 0.943271
0.041315 -0.083401 0.020960 0.223976 0.735657 0.639252
0.004486 -0.104019 0.030183 -0.021401 0.233027 0.972235
-0.088768 0.048384 0.018778 -0.479142 0.044934 0.876587
0.000900 -0.004399 0.011748 -0.217080 0.063765 0.974069
0.060952 0.062419 -0.018055 -0.012970 0.769743 -0.638222
-0.003919 -0.092282 -0.020181 -0.073484 0.489927 -0.868661
0.024307 -0.074178 0.014870 -0.259631 0.257535 0.930735
-0.036518 -0.110199 -0.019910 -0.620411 0.696930 -0.359693
0.024072 -0.039440 -0.016289 -0.149183 -0.046260 -0.987727
0.033302 0.010758 0.012883 0.198367 0.051139 0.978793
0.038524 0.055252 -0.022840 0.133217 0.504721 -0.852942
-0.075242 0.052036 0.020432 -0.029234 0.434947 0.899982
0.048350 0.062908 0.012736 0.095169 0.777560 0.621565
-0.004805 -0.113157 -0.003881 0.030488 -0.999032 0.031726
0.077660 0.064335 -0.000083 0.666409 0.735566 0.121822
0.042195 -0.002417 0.007770 0.858374 0.160355 0.487319
-0.062809 0.054625 -0.018503 0.082061 0.401939 -0.911982
-0.037671 0.021871 -0.004115 -0.087096 -0.995550 0.035988
0.042209 0.009437 0.009909 0.424114 -0.359322 0.831273
0.015794 -0.050556 -0.012180 -0.527862 -0.146498 -0.836601
-0.072523 0.040003 -0.017785 -0.086328 -0.533066 -0.841658
0.044330 -0.046639 0.014717 0.384305 -0.016527 0.923058
0.061861 0.044375 0.015562 -0.313258 -0.847748 0.428011
-0.006107 0.033267 0.020406 -0.372807 0.738576 0.561712
0.037438 0.046860 0.022403 0.248018 0.053101 0.967299
0.005058 -0.079442 0.015087 -0.041324 0.982456 0.181859
0.023687 -0.051832 0.016402 -0.197977 -0.062997 0.978180
0.047197 0.060616 -0.019696 0.076449 0.662770 -0.744911
-0.062074 0.064609 -0.009439 0.077158 0.868121 -0.490318
0.060345 0.012063 -0.010633 0.148773 -0.911249 -0.384046
0.023388 -0.109855 0.029535 0.060102 -0.558217 0.827515
0.054025 -0.086906 0.001906 0.169622 0.983578 -0.061657
-0.035652 -0.109221 -0.017391 -0.886629 0.458422 -0.061136
-0.083603 0.062387 0.012042 -0.087153 0.665564 0.741235
-0.026916 0.056171 0.023605 -0.042906 0.380708 0.923699
0.015079 -0.112144 0.007087 0.038797 -0.999070 0.018822
-0.054325 0.032907 -0.015357 0.012746 -0.623031 -0.782094
0.002190 0.043178 0.023322 0.042413 -0.111614 0.992846
0.054962 -0.102368 0.022614 0.770189 0.070311 0.633928
-0.078105 0.066444 0.003331 -0.039855 0.949796 0.310320
0.028774 0.023612 0.012676 0.033261 -0.049082 0.998241
0.008499 -0.036445 0.008051 -0.873083 -0.079960 0.480970
-0.010298 -0.013444 0.006082 -0.073530 -0.905194 0.418589
0.043310 -0.070944 0.014035 0.350072 0.032000 0.936176
-0.041222 -0.107213 0.025464 -0.897399 0.115384 0.425865
-0.096260 0.056328 0.009342 -0.713244 0.611885 0.341876
-0.001457 0.059744 -0.024262 -0.041293 -0.656099 -0.753544
0.021188 -0.066845 -0.011571 -0.440875 -0.196536 -0.875787
-0.100650 0.046845 -0.002656 -0.979848 -0.063552 -0.189366
-0.035600 0.059539 0.021574 -0.009491 0.615923 0.787749
-0.014624 0.056726 0.023840 0.247957 0.417447 0.874217
-0.000907 0.023740 -0.012127 -0.158757 -0.461185 -0.872986
0.015375 0.020730 0.013033 -0.039440 0.036336 0.998561
-0.077227 0.027866 -0.001929 -0.078180 -0.903677 -0.421017
0.052772 -0.043555 -0.004124 0.942346 0.207153 -0.262816
0.034446 -0.112195 -0.001323 0.015397 -0.998837 0.045681
0.033312 0.029509 -0.018415 -0.036457 -0.700937 -0.712291
0.044448 0.056713 0.017975 0.044104 0.464136 0.884665
0.069432 0.054733 -0.023350 0.204361 0.432213 -0.878310
0.037226 0.035795 -0.023639 0.222698 -0.467901 -0.855263
0.017699 -0.112008 0.008518 0.022111 -0.999755 -0.001291
-0.047161 0.033510 0.017352 -0.303449 -0.508043 0.806108
0.037411 0.068237 -0.001117 0.016527 0.998643 0.049388
0.071876 0.031816 -0.019923 0.808874 -0.396781 -0.433921
-0.093508 0.032250 -0.000057 -0.525736 -0.844542 -0.101741
0.003485 -0.112323 0.018480 0.025884 -0.999339 -0.025534
0.041042 -0.109021 0.029061 0.096130 -0.447950 0.888876
0.057023 0.043509 0.016917 -0.702772 -0.029277 0.710813
0.010123 -0.004962 0.013640 -0.210016 0.046883 0.976573
-0.080616 0.029647 0.011772 -0.043811 -0.667060 0.743715
-0.011730 0.007189 0.008125 -0.034245 0.013000 0.999329
0.014527 0.003416 -0.015123 -0.196571 0.005863 -0.980472
0.024864 0.036755 -0.024338 -0.030998 -0.323930 -0.945573
-0.024271 -0.100520 0.028221 -0.015770 0.347005 0.937731
0.055332 -0.085643 0.007240 0.788298 0.600044 0.136138
-0.044094 0.046187 0.024287 -0.411884 -0.016938 0.911079
0.053279 0.032508 0.015908 0.044813 -0.604087 0.795658
-0.027907 -0.084273 0.017425 -0.039499 0.902548 0.428774
0.068241 0.037535 -0.024616 -0.139019 -0.186370 -0.972594
-0.012448 0.054603 0.022788 0.809674 0.210485 0.547836
-0.034589 0.021567 -0.004500 -0.092774 -0.994782 0.042439
0.081709 0.046464 0.009124 0.995040 0.037003 0.092341
-0.093993 0.047502 -0.012608 -0.544095 0.104424 -0.832500
0.045642 -0.102865 -0.020486 -0.413012 -0.900693 -0.134809
-0.051575 0.031347 -0.013700 -0.057028 -0.718804 -0.692870
-0.004988 0.063824 0.023259 -0.051445 0.098126 0.993843
0.004315 0.021312 -0.012952 -0.060592 0.432005 -0.899834
0.074059 0.063449 -0.014034 0.456567 0.745217 -0.486003
0.064782 0.015370 0.008949 0.465832 -0.580368 0.667962
-0.067127 0.051192 -0.018327 -0.316077 0.231774 -0.919987
0.044886 0.004234 -0.003701 0.910365 -0.378078 -0.168205
0.081515 0.046695 -0.008311 0.970959 0.005969 -0.239170
-0.009238 0.031054 0.022252 -0.524414 -0.241304 0.816555
0.061176 0.043137 0.017306 0.122515 0.807670 0.576766
0.031632 -0.102491 0.029141 0.121109 0.216271 0.968793
0.029362 -0.075335 0.015678 0.175726 0.949691 0.259244
0.047773 -0.016228 -0.000976 0.937880 0.343446 -0.049257
0.035469 -0.112252 -0.005739 0.032006 -0.999321 0.018273
0.036586 0.051349 -0.025596 0.242111 0.234938 -0.941375
0.036549 -0.092361 -0.022814 -0.029555 0.296140 -0.954687
0.015468 0.010761 -0.014917 -0.133527 0.030051 -0.990589
0.081970 0.041781 0.006257 0.988578 0.079323 -0.128143
0.056042 0.038050 0.016743 0.114515 -0.515546 0.849175
0.031394 -0.078250 0.017211 0.130085 0.638882 0.758227
0.069356 0.040307 0.018465 -0.206644 -0.048953 0.977191
0.035095 -0.074003 0.015440 0.047427 0.076979 0.995904
-0.011697 0.062533 0.019796 -0.100191 0.639926 0.761877
0.064685 0.047809 -0.022450 -0.040472 0.049732 -0.997942
-0.024460 -0.085454 -0.012814 -0.075366 0.826506 -0.557860
0.007760 0.066794 0.017773 -0.001014 0.999718 0.023746
0.047676 0.007811 -0.001300 0.611043 -0.791515 -0.011437
0.081462 0.032527 -0.005235 0.931211 -0.349686 -0.102793
-0.010674 -0.113705 -0.010689 0.113041 -0.993573 0.005887
0.069555 0.067286 0.001721 0.091308 0.980114 0.176183
0.057643 -0.105065 0.013426 0.908693 -0.403120 0.108498
0.062270 0.015267 0.010202 0.228189 -0.588773 0.775420
0.028315 -0.111811 0.012461 0.027506 -0.999465 0.017705
-0.018685 0.046410 0.025811 -0.048942 -0.009442 0.998757
-0.038565 -0.114008 0.005326 -0.021872 -0.998629 0.047551
0.030408 -0.112156 0.022524 0.014813 -0.999881 0.004416
-0.032325 -0.113938 0.003841 0.037993 -0.995287 0.089219
-0.035996 -0.106861 -0.013361 -0.569322 -0.118371 -0.813548
-0.072249 0.048776 -0.018830 -0.144326 -0.141023 -0.979430
0.012354 -0.082483 -0.018148 -0.042629 0.629803 -0.775585
0.010171 -0.112841 -0.005497 0.031804 -0.999288 0.020308
0.069555 0.067286 0.001721 0.091308 0.980114 0.176183
-0.008414 0.000757 -0.007478 -0.034955 -0.029211 -0.998962
0.081629 0.047048 -0.013322 0.999015 0.031375 0.031372
-0.026757 0.050910 -0.025478 -0.169661 0.146834 -0.974502
0.002778 0.032076 -0.021984 0.022813 0.363969 -0.931131
0.013324 -0.063827 -0.003432 -0.898990 -0.341545 -0.274159
0.038639 -0.042847 0.016123 0.161347 0.003240 0.986892
-0.085329 0.053300 0.019097 -0.298788 0.479001 0.825399
0.043470 -0.082835 -0.015870 0.263808 0.673601 -0.690411
-0.002960 -0.079952 0.015581 0.051538 0.941839 0.332090
0.051693 -0.094937 0.023617 0.553563 0.252615 0.793570
0.015626 -0.052434 0.013160 -0.570157 -0.125854 0.811838
0.042671 -0.023385 0.013108 0.540059 0.174350 0.823370
0.012244 -0.106326 0.030706 -0.001564 -0.011392 0.999934
-0.076370 0.039237 0.018690 -0.050878 -0.563720 0.824398
0.019098 0.052167 -0.024990 -0.007946 0.269974 -0.962835
0.056694 0.030388 -0.019861 -0.027378 -0.663214 -0.747929
0.050020 -0.079770 -0.009452 0.732610 0.337588 -0.591030
-0.004507 -0.085694 -0.018663 -0.208680 0.464251 -0.860770
-0.013783 -0.003514 -0.003881 -0.918509 -0.069253 -0.389287
0.053591 -0.089940 0.020426 0.664157 0.375499 0.646449
-0.069530 0.026646 0.005278 -0.156369 -0.956459 0.246446
-0.051774 0.026875 -0.007085 0.012243 -0.931508 -0.363514
0.050332 -0.054884 0.009387 0.795566 -0.039073 0.604606
0.081593 0.058448 -0.003639 0.938399 0.344699 -0.024271
-0.075300 0.060038 0.015990 -0.085212 0.804070 0.588396
0.081813 0.044178 0.001657 0.992956 0.011820 0.117891
0.015811 -0.068573 -0.006319 -0.859233 -0.185158 -0.476901
-0.000335 0.016432 0.015786 -0.012042 -0.962331 -0.271614
0.038534 -0.007249 0.012531 0.489285 0.098349 0.866561
0.073388 0.025375 0.004849 0.436509 -0.821467 0.366949
0.076932 0.028290 -0.012308 0.595958 -0.561585 -0.573983
0.022598 -0.033190 -0.016466 -0.165943 -0.076505 -0.983163
-0.023508 0.023541 -0.013134 -0.065566 -0.858572 -0.508483
0.032224 0.013461 -0.015142 0.050808 -0.029431 -0.998275
-0.027264 0.033341 0.021919 -0.038301 -0.556860 0.829723
-0.006448 0.061096 -0.024914 -0.045775 -0.312246 -0.948898
-0.017319 -0.092364 -0.018700 -0.165031 0.536324 -0.827720
-0.013120 -0.078985 -0.001680 -0.040644 0.989508 -0.138641
0.066568 0.018041 0.009227 0.678335 -0.188775 0.710089
0.003002 -0.112172 -0.023427 0.001559 -0.711475 -0.702710
0.005392 0.062208 0.022681 0.007826 -0.385758 0.922567
-0.001612 0.048426 0.023654 0.069087 0.076174 0.994698
-0.029662 -0.088248 0.022120 -0.044867 0.611506 0.789967
0.059799 0.055682 0.015247 0.471650 -0.213671 0.855506
-0.000567 -0.017374 0.002126 -0.235140 -0.971955 -0.003604
0.021582 0.032416 -0.021170 0.079852 -0.778639 -0.622371
0.060675 0.056922 0.017418 0.100105 -0.214368 0.971610
0.013556 0.024941 -0.022555 -0.000155 -0.918766 -0.394802
-0.010691 -0.000413 0.008120 -0.271589 -0.123236 0.954490
-0.067198 0.052087 0.020528 -0.174731 0.212743 0.961358
0.001871 -0.102329 -0.023874 -0.062654 0.193653 -0.979067
0.043691 -0.075625 -0.012520 0.320872 0.099567 -0.941874
-0.031611 0.070738 -0.006079 -0.002187 0.993828 -0.110914
0.015663 -0.001905 -0.015365 -0.209085 0.005684 -0.977881
-0.050457 0.025901 0.004135 -0.022369 -0.985216 0.169848
0.028453 -0.112049 0.019984 0.048241 -0.992725 -0.110315
-0.077096 0.032059 -0.011326 -0.048828 -0.844989 -0.532549
-0.096617 0.057860 -0.001177 -0.763817 0.622308 -0.171220
-0.024070 0.010626 0.005264 -0.473447 -0.756049 0.451926
0.016266 0.038278 -0.024636 -0.017862 -0.283517 -0.958801
0.032639 -0.037007 -0.016888 0.053178 -0.003165 -0.998580
-0.011997 0.033550 0.020371 0.566926 0.558217 0.605795
0.023589 0.008980 -0.015751 -0.001593 0.096462 -0.995335
-0.062482 0.042308 -0.019793 0.103906 -0.205817 -0.973058
-0.019584 -0.081792 0.009366 -0.081475 0.987271 0.136593
0.051632 -0.111007 -0.006771 0.480227 -0.875077 -0.060192
0.044382 -0.033421 -0.008550 0.382032 -0.921849 -0.065154
0.006382 -0.028591 -0.002360 -0.983350 -0.062057 -0.170797
0.068705 0.025130 0.008316 0.472841 -0.597397 0.647717
0.028315 -0.111811 0.012461 0.027506 -0.999465 0.017705
-0.097053 0.053048 -0.007489 -0.743606 0.456398 -0.488621
0.071157 0.061646 -0.017961 0.238865 0.740205 -0.628523
0.044499 0.011599 -0.013057 0.231974 -0.566036 -0.791070
-0.081188 0.036895 -0.014759 -0.120718 -0.226802 -0.966431
0.006638 -0.107685 -0.025386 -0.052545 -0.003459 -0.998613
-0.060761 0.030694 0.015059 0.111468 -0.747804 0.654496
0.015507 -0.013219 -0.015030 -0.305881 -0.096757 -0.947140
0.049435 -0.111303 -0.018219 0.509040 -0.852777 -0.116833
0.049289 -0.022522 -0.003458 0.960969 0.194653 -0.196592
-0.098272 0.041439 0.009964 -0.746973 -0.247413 0.617104
0.033036 0.004722 0.013592 0.292343 0.109584 0.950014
0.057881 -0.094198 -0.010517 0.964568 0.065723 -0.255519
0.012396 0.032776 0.020599 0.106388 0.673403 0.731580
0.014679 -0.075748 -0.003919 -0.778615 0.496538 -0.383678
-0.055118 0.032068 0.016145 0.048071 -0.688369 0.723766
-0.005609 0.037323 0.021576 -0.645300 -0.288626 0.707307
0.018207 0.021169 0.013024 0.012742 0.023399 0.999645
-0.032617 0.026740 0.015001 -0.020199 -0.679739 0.733176
-0.021455 -0.113452 0.011734 0.027548 -0.999480 0.016747
0.027577 -0.076712 0.016342 0.006825 0.584188 0.811590
0.005934 0.015606 -0.017606 0.132779 -0.991087 -0.010781
-0.047094 0.025312 0.004356 -0.536192 -0.820201 0.199421
0.015963 -0.096091 0.028018 -0.005259 0.329242 0.944231
-0.096060 0.058896 0.001433 -0.724478 0.688290 -0.037265
-0.007549 0.040273 0.020898 -0.242863 -0.241205 0.939595
0.023024 0.066513 0.009091 0.193769 0.885532 0.422240
-0.014614 0.005330 -0.006912 -0.395614 -0.297145 -0.869019
0.001349 0.040892 -0.024939 -0.036143 -0.216462 -0.975622
-0.007430 0.067174 -0.007111 -0.018390 0.973832 -0.226525
0.057530 -0.102669 0.015837 0.901183 -0.401927 0.162248
-0.068930 0.063940 -0.008753 -0.108409 0.848834 -0.517425
-0.014220 0.011548 -0.010233 -0.052729 -0.613342 -0.788055
0.005737 0.013584 0.012486 -0.115967 -0.123749 0.985514
0.012455 0.031627 -0.022397 -0.051294 0.503235 -0.862626
-0.047047 0.058735 -0.016819 -0.594700 0.458221 -0.660579
-0.015511 0.042720 -0.026228 0.410763 -0.109178 -0.905182
0.028213 0.052635 0.021623 0.036966 0.277127 0.960122
0.023091 -0.072357 -0.011999 -0.418855 -0.063330 -0.905842
0.000115 -0.112317 0.019172 0.057978 -0.996576 -0.058943
0.015725 0.058863 0.019721 0.028312 0.028100 0.999204
-0.040495 0.035107 0.022385 -0.037565 -0.517353 0.854947
-0.096615 0.045509 -0.010126 -0.851777 -0.042019 -0.522217
0.020285 -0.050158 0.015656 -0.301723 -0.082852 0.949789
-0.041733 -0.109263 -0.017982 -0.349339 0.369135 -0.861221
-0.069611 0.051131 -0.018512 -0.019688 0.262347 -0.964773
-0.015886 0.010540 -0.008021 -0.064538 -0.672683 -0.737111
0.024982 0.059088 -0.020203 0.060754 0.698018 -0.713498
0.081721 0.045379 0.003303 0.985722 0.028785 0.165900
-0.001008 -0.090288 0.024743 -0.010451 0.611053 0.791521
-0.037065 0.048979 -0.023783 -0.095032 -0.110833 -0.989285
0.053366 -0.110057 -0.004997 0.601089 -0.795929 -0.072030
0.022228 -0.047772 -0.015236 -0.245400 -0.097856 -0.964470
0.065846 0.055707 -0.023918 -0.082142 0.267238 -0.960123
-0.003690 0.013262 0.010857 -0.104248 -0.044963 0.993534
0.074907 0.052894 0.016746 0.406011 0.303652 0.861946
-0.002979 -0.078225 -0.001571 0.164148 0.968944 -0.184941
-0.059385 0.065225 0.010782 0.032071 0.887096 0.460469
0.047773 -0.101616 0.027193 0.311343 0.223511 0.923639
0.080040 0.047316 0.013276 0.839712 0.064316 0.539211
0.019512 -0.068090 -0.010626 -0.563240 -0.173270 -0.807922
0.029750 -0.105211 0.029897 0.170629 0.093269 0.980911
-0.040536 0.050800 -0.023909 -0.129316 0.019012 -0.991421
-0.040599 0.046958 -0.023635 -0.134306 -0.023814 -0.990654
-0.072674 0.055141 0.017706 -0.128593 0.361787 0.923349
0.018207 0.021169 0.013024 0.012742 0.023399 0.999645
0.078307 0.045262 0.015703 0.685823 0.002083 0.727765
0.053176 -0.067529 0.000723 0.993798 -0.110583 0.011674
-0.009423 0.057718 0.018393 0.094517 0.240995 0.965913
0.002419 -0.004648 -0.011765 -0.213942 0.005795 -0.976829
-0.031757 0.059514 -0.021136 -0.073811 0.633754 -0.770005
0.004515 -0.112855 -0.004098 0.031096 -0.998788 0.038160
0.008170 -0.110433 0.029511 0.022698 -0.645110 0.763752
-0.071315 0.044432 -0.018464 -0.282555 0.066997 -0.956908
-0.013783 -0.082890 -0.014227 -0.472717 0.716689 -0.512734
-0.003144 -0.082814 -0.013900 -0.699480 0.688944 -0.189955
0.046473 0.058239 0.016789 0.107315 0.529413 0.841549
0.078664 0.044753 -0.020678 0.812891 -0.027430 -0.581769
0.073273 0.059266 -0.015124 0.560307 -0.427544 -0.709410
-0.055829 0.030783 0.014819 0.053461 -0.752905 0.655955
-0.042746 0.034355 -0.021041 -0.117424 -0.486974 -0.865487
0.010042 0.017599 0.014096 0.680594 -0.537292 0.498105
0.052931 0.015682 -0.015156 0.009451 -0.408593 -0.912668
0.028644 -0.040230 0.016919 0.019004 -0.031484 0.999324
0.041247 -0.112481 -0.001828 -0.047366 -0.997990 0.042093
0.028765 -0.112569 -0.012767 0.008887 -0.999404 0.033350
-0.005381 0.027065 0.023097 -0.000566 -0.700067 0.714077
-0.079214 0.055298 -0.015008 0.055422 0.072790 -0.995806
-0.054386 0.066923 0.005753 0.032845 0.975203 0.218860
-0.047246 0.066636 -0.004861 -0.481367 0.849848 -0.214580
0.003598 -0.080882 0.020275 -0.040076 0.887188 0.459664
-0.017639 0.063052 -0.020120 0.009951 0.657832 -0.753099
0.073672 0.055021 -0.021093 0.571878 0.711955 -0.407524
0.063244 0.052407 -0.023377 0.083769 0.602566 -0.793660
0.068705 0.025130 0.008316 0.472841 -0.597397 0.647717
-0.071011 0.026295 -0.000251 -0.197211 -0.970320 -0.139954
-0.031521 0.054096 0.024174 0.030603 0.264057 0.964021
-0.002700 0.026768 0.022104 -0.004992 -0.858470 0.512839
0.006846 0.060689 0.021327 -0.034895 -0.755207 0.654556
0.023063 0.067074 -0.010342 0.147923 0.913139 -0.379862
-0.001055 0.016245 -0.013179 -0.516307 -0.531982 -0.671135
0.020768 0.056303 -0.023763 0.014361 0.476623 -0.878991
-0.076230 0.054087 0.018619 -0.007147 0.539157 0.842175
0.023277 0.068456 -0.005665 0.170936 0.958582 -0.227818
0.057612 0.032761 -0.022159 -0.018392 -0.577198 -0.816397
-0.035534 -0.114144 0.003064 0.032400 -0.997834 0.057258
0.000268 0.019354 -0.014746 -0.297980 0.948024 -0.111620
0.039092 -0.037059 -0.016006 0.269968 -0.067673 -0.960488
-0.059430 0.038592 -0.018642 0.012557 -0.362925 -0.931734
-0.014808 -0.110569 0.029720 -0.002523 -0.503290 0.864114
0.013757 -0.109248 0.030094 0.007442 -0.447274 0.894366
0.020118 -0.112639 -0.014323 0.009059 -0.994275 0.106468
-0.016812 0.061678 0.020938 -0.017746 0.598896 0.800630
0.013844 -0.039745 0.013414 -0.572678 -0.071839 0.816627
0.010514 0.033433 0.020537 0.110563 0.340075 0.933876
0.057751 0.063519 -0.016592 -0.005296 0.815572 -0.578631
0.039242 -0.112920 -0.019581 0.043677 -0.998534 -0.031964
-0.031896 -0.082976 0.013400 -0.064866 0.971665 0.227286
-0.010134 0.066879 -0.007700 0.140485 0.968163 -0.207181
0.053103 -0.092216 0.021663 0.598332 0.226459 0.768580
-0.043718 0.036580 -0.022090 -0.172577 -0.381673 -0.908043
0.004486 -0.104019 0.030183 -0.021401 0.233027 0.972235
0.070429 0.065201 -0.012985 0.157350 0.881466 -0.445263
0.035729 -0.112614 -0.015568 0.028647 -0.994741 0.098334
0.053699 0.035733 -0.020597 0.220061 -0.031509 -0.974977
0.049880 0.049796 -0.023938 0.013377 -0.294645 -0.955513
-0.032718 -0.100860 0.027889 -0.059135 0.317709 0.946342
-0.022500 0.033611 0.022287 -0.042540 -0.488787 0.871365
-0.057201 0.065041 0.010916 0.053419 0.881434 0.469277
0.053231 -0.071984 -0.001103 0.994921 0.010520 -0.100110
-0.050255 0.054607 -0.018340 -0.017395 0.396211 -0.917995
0.010114 -0.045744 -0.007472 -0.847394 -0.136918 -0.513007
0.000009 0.016879 0.014599 -0.225709 -0.959587 -0.168073
0.026149 0.041448 0.022354 0.028820 -0.168525 0.985276
-0.037803 0.022309 -0.006616 -0.105313 -0.961706 -0.253041
0.021496 -0.098016 0.028592 -0.007605 0.297505 0.954690
0.035785 -0.028273 -0.016474 0.163360 0.013127 -0.986479
-0.017078 0.072718 -0.000389 -0.021157 0.999762 0.005287
-0.074229 0.028285 0.006074 -0.039285 -0.980564 0.192225
-0.063910 0.050504 0.022565 -0.170644 0.186590 0.967504
0.054732 0.039058 0.018337 0.202839 -0.441026 0.874273
0.012868 -0.111538 -0.024304 -0.018910 -0.654517 -0.755811
0.026852 0.005229 -0.016037 0.072035 0.088890 -0.993433
0.044808 0.006142 0.004974 0.812427 -0.436681 0.386358
0.052706 0.011345 -0.010232 0.125680 -0.916270 -0.380333
-0.004150 0.029417 0.023991 0.031538 -0.073177 0.996820
-0.027988 0.042166 0.024941 -0.084188 -0.035291 0.995825
-0.030225 0.021178 -0.004335 -0.102071 -0.992875 0.061482
-0.013437 -0.012960 0.007342 -0.395525 -0.540370 0.742671
0.011995 -0.061461 -0.002281 -0.917070 -0.342143 -0.204744
-0.002350 -0.079275 0.013155 0.134005 0.967601 0.213986
0.059539 -0.099522 -0.007670 0.998402 0.037603 -0.042177
0.020482 0.012918 0.013872 -0.080808 0.201168 0.976218
0.023675 -0.095300 0.027771 -0.005164 0.354929 0.934879
-0.045274 0.029276 0.016136 -0.520735 -0.577564 0.628693
-0.023111 -0.081504 0.003062 -0.053895 0.998080 -0.030510
-0.047780 0.025493 -0.005466 -0.519240 -0.825476 -0.221313
0.024013 -0.095422 -0.023447 -0.064231 0.353621 -0.933181
0.056781 0.011509 -0.009734 0.062232 -0.942998 -0.326928
-0.042213 -0.113740 -0.008156 -0.458004 -0.885196 -0.081614
-0.044856 -0.102787 0.000853 -0.960139 0.265293 -0.088051
-0.062625 0.034413 0.018660 0.110776 -0.558354 0.822173
0.063904 0.059488 -0.020981 0.134435 0.591987 -0.794657
-0.011913 -0.007040 0.007836 -0.501633 0.106516 0.858498
0.047926 -0.093512 0.024920 0.287272 0.329795 0.899283
0.048406 -0.104677 0.027671 0.369887 0.138095 0.918756
0.074048 0.050062 -0.023853 0.365755 0.173813 -0.914337
0.006776 0.054389 0.021954 0.057131 0.360829 0.930881
-0.009929 0.033155 0.020623 0.106496 0.946286 0.305288
0.050652 -0.037746 -0.008751 0.737598 0.043356 -0.673847
0.059455 0.036967 0.016169 0.074978 -0.039212 0.996414
0.062627 0.045435 0.019166 0.010579 -0.209394 0.977774
0.020487 -0.112211 0.023904 0.020323 -0.995862 0.088581
0.053652 0.036693 0.016634 0.164875 0.101685 0.981059
0.049499 -0.068694 -0.008419 0.731572 -0.048565 -0.680032
0.033883 -0.021679 -0.016613 0.180500 0.000100 -0.983575
0.055818 0.068086 -0.002738 0.007682 0.999775 -0.019788
-0.037362 0.048771 0.024370 -0.039631 0.023734 0.998932
0.037351 0.064187 0.011618 0.023730 0.820494 0.571162
0.053410 -0.044156 0.002625 0.978285 0.163473 0.127415
0.018262 -0.078825 0.016803 -0.178157 0.917310 0.356094
0.056482 0.047150 0.019199 0.025953 0.382047 0.923778
-0.011991 0.021845 -0.010703 0.037814 -0.153940 -0.987356
0.082034 0.041158 0.002168 0.961833 0.212487 0.172416
-0.089119 0.032852 -0.008894 -0.406848 -0.739556 -0.536220
0.048902 0.040252 -0.023672 -0.047672 0.394454 -0.917678
-0.015557 0.025247 0.015307 0.121604 -0.813052 0.569349
-0.009997 0.013808 0.010848 -0.023282 -0.113760 0.993235
0.042455 -0.009817 0.009470 0.774548 0.186562 0.604376
-0.039882 -0.088019 0.002383 -0.919882 0.390178 -0.039727
0.037852 -0.014909 0.014718 0.364796 0.126697 0.922427
0.026676 -0.012874 -0.017022 -0.060457 -0.022165 -0.997925
0.019963 0.058606 -0.021612 0.309127 0.591364 -0.744802
0.074586 0.025839 -0.010763 0.468708 -0.825059 -0.315578
0.004989 -0.016448 -0.010596 -0.390978 -0.541262 -0.744427
0.004746 -0.111097 0.029015 -0.011926 -0.745670 0.666209
-0.020444 0.062760 -0.020491 -0.036908 0.628603 -0.776850
-0.017990 0.051279 -0.025950 -0.014432 0.189987 -0.981680
0.055731 0.052326 -0.023427 -0.101386 0.660182 -0.744231
0.023902 -0.112018 0.025534 0.014544 -0.982102 0.187785
0.020085 0.029869 0.016062 0.695672 -0.441586 0.566606
0.040538 -0.009798 0.011777 0.639385 0.236894 0.731484
0.073961 0.041354 0.017820 0.406999 -0.170969 0.897286
-0.012602 0.055869 -0.020832 0.635849 0.305936 -0.708590
-0.038148 0.033526 0.021341 -0.060986 -0.666970 0.742585
-0.029842 0.051480 0.024514 -0.057063 -0.033220 0.997818
0.045097 -0.015019 -0.009277 0.826345 0.332615 -0.454446
0.059299 -0.098413 -0.000683 0.995701 0.082809 0.041508
0.051475 -0.035074 0.006045 0.934100 0.174645 0.311379
-0.048554 0.035735 -0.017379 -0.389408 -0.484241 -0.783500
0.052494 -0.101279 -0.018625 0.341319 0.600414 -0.723190
0.048459 -0.018536 -0.000238 0.958595 0.284770 0.001348
-0.013372 0.013838 -0.010642 -0.034925 -0.038122 -0.998663
-0.029494 0.021187 -0.003582 -0.743761 -0.665369 -0.064059
-0.025730 -0.114239 -0.006597 0.032889 -0.999445 0.005301
-0.080563 0.050712 -0.017747 -0.084711 0.268082 -0.959665
0.049430 0.057368 0.017752 -0.060038 0.637577 0.768044
-0.014633 0.016432 -0.010516 -0.029932 0.009110 -0.999510
0.058097 0.040535 -0.023593 0.156652 0.214025 -0.964185
-0.017624 -0.082017 -0.004699 -0.437972 0.878063 -0.192836
-0.019342 -0.083115 0.015598 -0.083173 0.937371 0.338257
-0.078859 0.046844 0.019833 -0.020928 -0.048482 0.998605
0.015951 0.057383 -0.023138 0.081189 0.156236 -0.984377
-0.008849 0.026267 0.018827 -0.357268 -0.832651 0.423146
-0.080395 0.038936 -0.015582 -0.072690 -0.582411 -0.809638
0.016026 -0.053099 -0.011890 -0.536312 -0.153102 -0.830018
0.021864 -0.070568 -0.011571 -0.479278 -0.116686 -0.869872
0.035819 -0.098805 -0.024261 -0.029320 0.206593 -0.977988
-0.076017 0.060400 -0.011184 0.000324 0.837194 -0.546906
0.043449 0.029695 -0.018952 -0.016475 -0.695875 -0.717974
0.014285 0.026984 -0.024980 -0.053423 -0.366845 -0.928747
-0.049436 0.027044 -0.007556 -0.176988 -0.898277 -0.402211
0.003306 0.063233 0.023077 0.040011 -0.077124 0.996218
0.053556 0.041686 0.018722 0.137183 0.058421 0.988821
0.082050 0.040389 0.004708 0.982214 0.178097 0.059468
-0.033801 -0.082661 0.010340 -0.235811 0.959115 0.156496
0.028985 0.033282 0.017787 0.019702 -0.776017 0.630404
-0.036859 0.036593 -0.022746 -0.101621 -0.392769 -0.914005
-0.067628 0.028032 -0.007477 -0.230842 -0.875315 -0.424894
0.035459 -0.096928 0.027315 0.027236 0.292370 0.955917
-0.035377 0.056138 0.023237 -0.040176 0.402178 0.914680
-0.007982 0.058730 -0.020282 -0.329334 -0.609081 -0.721498
0.044022 -0.012373 -0.008480 0.853322 0.256160 -0.454118
-0.096381 0.056354 -0.005936 -0.800394 0.477231 -0.362795
-0.086313 0.064356 -0.001356 -0.379160 0.885391 -0.268925
-0.010787 -0.013048 -0.006363 0.084713 -0.637197 -0.766031
-0.002793 -0.090437 -0.018725 -0.057616 0.413754 -0.908564
-0.012189 -0.113378 0.009575 0.047201 -0.998695 0.019479
-0.002593 0.010507 -0.011320 -0.209359 -0.026279 -0.977486
0.060952 0.062419 -0.018055 -0.012970 0.769743 -0.638222
-0.058708 0.041914 0.021597 0.047530 -0.233469 0.971202
0.001380 0.067251 0.006851 0.042907 0.995858 0.080164
0.031498 0.036741 0.020851 0.007494 -0.307003 0.951679
-0.007607 -0.003863 -0.007383 -0.039178 -0.044245 -0.998252
0.047436 0.045331 -0.024991 0.279852 0.047779 -0.958854
0.028404 -0.053853 -0.015479 -0.072742 -0.079300 -0.994193
0.054204 0.019202 0.012021 0.021321 0.043329 0.998833
0.046069 -0.107170 -0.019702 -0.261688 0.406014 -0.875598
-0.009845 -0.113403 -0.013709 0.096655 -0.994146 0.048284
-0.047561 0.063208 -0.011542 -0.468651 0.693481 -0.547220
0.047903 -0.075412 -0.010241 0.620294 0.084212 -0.779836
0.008623 -0.098158 -0.023386 -0.061339 0.282777 -0.957222
0.030732 -0.033204 0.017172 -0.011236 -0.003193 0.999932
0.049571 -0.097100 0.025299 0.386618 0.252274 0.887065
0.017576 0.064779 -0.024415 0.372593 0.731993 -0.570405
-0.029931 -0.083890 -0.008130 -0.037759 0.959627 -0.278731
-0.025952 -0.099555 -0.020272 -0.097606 0.311552 -0.945203
-0.064943 0.065897 0.010183 -0.300887 0.862657 0.406560
0.052504 -0.087026 0.018891 0.544344 0.672275 0.501733
-0.015409 0.067698 -0.015052 0.205705 0.817227 -0.538354
-0.028180 0.071176 0.005048 -0.143452 0.988346 0.050921
0.042385 0.047491 -0.024915 -0.022156 0.056257 -0.998170
0.042856 -0.013660 -0.011816 0.720225 0.343302 -0.602843
0.040479 -0.012656 0.012996 0.552141 0.230381 0.801290
-0.000907 0.023740 -0.012127 -0.158757 -0.461185 -0.872986
0.055867 0.066385 -0.011240 0.005933 0.930773 -0.365549
-0.035938 0.063725 -0.016532 -0.076096 0.695144 -0.714832
0.056967 -0.106422 0.011020 0.812631 -0.572097 0.111068
0.044775 -0.023964 0.011557 0.671595 0.183626 0.717803
0.044749 0.015189 -0.014930 0.015872 -0.353742 -0.935208
-0.053924 0.065722 -0.006850 0.013565 0.925170 -0.379310
0.064909 0.067859 0.000165 0.079957 0.990287 0.113750
0.024058 -0.015921 -0.017144 -0.036955 0.110121 -0.993231
0.082393 0.038106 -0.006297 0.994035 0.003322 -0.109008
-0.014102 -0.081362 0.017565 -0.469850 0.759706 0.449542
0.034459 0.029763 0.014439 0.028320 -0.607982 0.793445
-0.022670 0.016403 -0.009499 -0.353703 -0.023656 -0.935059
0.033324 0.050818 -0.025715 -0.045144 0.199392 -0.978879
0.058658 -0.089750 0.000207 0.930049 0.364243 -0.048338
0.010799 0.002492 -0.014238 -0.229468 -0.012162 -0.973240
0.046155 -0.032060 -0.012560 0.582762 -0.346143 -0.735237
-0.093715 0.060613 -0.000990 -0.536411 0.807599 -0.245045
0.020056 0.060746 0.018301 0.890796 0.118430 0.438700
0.052102 -0.038090 0.006167 0.926729 0.007944 0.375647
-0.041245 -0.112583 0.020217 -0.559551 -0.799410 0.218741
0.068119 0.035059 0.017534 0.039515 -0.411750 0.910440
0.081386 0.052837 0.008400 0.947030 0.164934 0.275554
0.020980 0.042593 -0.025668 -0.030641 -0.117181 -0.992638
0.050719 0.037259 -0.022483 0.030964 -0.548865 -0.835337
0.039882 -0.077320 0.015660 0.182218 0.370639 0.910727
-0.008088 0.056090 -0.020378 -0.253455 0.507878 -0.823299
0.052083 -0.047401 -0.007332 0.894384 0.029345 -0.446336
0.006776 0.054389 0.021954 0.057131 0.360829 0.930881
-0.045101 -0.105062 -0.001673 -0.957049 0.256857 -0.134468
0.058506 -0.089279 0.003172 0.914883 0.403389 0.016315
0.021525 -0.112211 0.020287 0.096061 -0.982648 -0.158666
0.014972 0.053851 0.021851 0.034469 0.339062 0.940132
0.005725 -0.103109 -0.024292 -0.057568 0.204101 -0.977256
0.015043 -0.046109 -0.007292 0.270811 0.806892 -0.524964
-0.048898 0.059504 0.016965 -0.009915 0.598914 0.800752
0.019621 -0.023775 -0.016323 -0.262931 0.035920 -0.964146
-0.070477 0.056908 0.018069 -0.141298 0.387662 0.910908
0.074907 0.052894 0.016746 0.406011 0.303652 0.861946
0.043372 -0.035041 -0.006482 0.648218 -0.403040 -0.646043
-0.051256 0.026182 -0.004721 0.000852 -0.972517 -0.232831
0.042951 -0.004059 0.006914 0.890272 0.221529 0.397920
0.041110 -0.063369 -0.013487 0.235502 -0.061483 -0.969927
0.019512 -0.068090 -0.010626 -0.563240 -0.173270 -0.807922
0.067089 0.041255 0.018097 -0.012524 0.087924 0.996048
0.020208 0.068339 -0.008649 0.198918 0.925648 -0.321882
-0.011327 0.028661 -0.020574 -0.501350 -0.595255 -0.627949
-0.017998 -0.113352 0.013739 0.018577 -0.999617 0.020494
0.026532 -0.060626 -0.014613 -0.149819 -0.190633 -0.970162
0.046326 -0.097320 -0.023425 0.204464 0.255081 -0.945055
0.044144 -0.037579 -0.006307 0.301934 0.366787 -0.879945
-0.031068 0.053582 -0.024185 -0.097772 0.248278 -0.963742
0.044240 -0.109121 -0.024454 0.325896 0.717915 -0.615134
-0.060847 0.041512 -0.019561 0.015451 -0.252984 -0.967347
0.006303 0.016422 0.015200 -0.045224 -0.993784 0.101723
0.011116 0.066632 -0.013749 0.002694 0.926586 -0.376072
0.006239 -0.008849 0.012889 -0.234903 0.061024 0.970101
0.040054 -0.073879 0.014991 0.185709 0.113850 0.975987
0.020352 -0.074110 -0.010005 -0.627606 0.092339 -0.773036
0.043657 0.003989 -0.006853 0.864432 -0.345148 -0.365554
0.044303 0.012466 0.010496 0.242307 -0.432854 0.868288
-0.006582 0.046345 -0.024923 -0.504894 0.016302 -0.863027
-0.034393 -0.107493 -0.021661 -0.471404 0.122326 -0.873393
-0.041719 0.060793 0.019874 -0.060759 0.725144 0.685911
-0.017704 -0.101544 0.028682 -0.172600 0.311963 0.934285
0.074347 0.036208 0.016326 0.381890 -0.383316 0.840969
0.074488 0.054696 -0.017558 0.284260 0.954239 -0.092868
0.032790 -0.004376 -0.015771 0.177390 -0.073280 -0.981409
0.046876 0.067269 -0.008835 0.046693 0.955899 -0.289959
-0.018885 0.068307 -0.013594 -0.002507 0.856949 -0.515396
0.018005 0.065580 -0.022163 0.553043 0.824772 -0.117870
