0.033631 -0.031595 0.001710 -0.818029 -0.051194 0.572894
-0.023603 -0.042002 -0.009546 0.252772 0.009368 0.967481
-0.012219 -0.022104 -0.012729 0.049657 0.000090 -0.998766
-0.018844 -0.046239 -0.010100 0.140922 0.543871 0.827252
0.045768 0.077209 0.000789 -0.938730 -0.134559 -0.317301
-0.052896 0.049179 -0.003358 0.138509 0.019882 0.990162
-0.023741 -0.031120 0.006577 0.883444 0.438560 -0.164898
-0.019607 -0.037158 0.012260 0.115795 -0.047846 0.992120
0.023475 -0.013643 0.008807 0.117751 -0.053761 0.991587
-0.006146 0.006052 -0.016933 -0.053699 0.646465 -0.761052
0.016838 -0.057371 -0.015019 0.131126 -0.065943 0.989170
0.024337 0.008923 -0.012020 0.630303 0.165529 -0.758498
-0.005585 -0.047917 0.010171 0.138836 -0.022923 0.990050
0.021757 -0.072260 0.006461 0.402607 -0.151571 0.902737
0.018431 -0.019772 0.009093 -0.020956 -0.161939 0.986578
0.014381 -0.055428 -0.016928 -0.168879 0.055019 -0.984100
-0.034439 0.035709 -0.006351 0.709724 0.566263 0.419093
-0.012252 -0.042362 -0.013566 -0.103167 0.039554 -0.993877
-0.004234 -0.050169 -0.012930 0.756195 0.256484 0.601985
-0.027913 0.001747 -0.005068 0.521804 -0.067799 0.850367
-0.026236 0.005013 0.013283 -0.389534 -0.177289 0.903787
-0.039129 0.028860 0.016427 -0.121076 -0.191496 0.973997
0.020411 0.027962 0.003790 -0.443475 0.590243 -0.674495
-0.042318 0.038803 -0.004773 0.161079 -0.063968 0.984866
-0.006128 0.005430 0.010172 0.000385 0.765217 -0.643773
-0.028336 0.004310 0.011843 -0.578600 -0.230828 0.782266
-0.001511 -0.008081 -0.009912 0.214581 -0.764686 0.607626
-0.001851 -0.001933 -0.019008 -0.070826 0.086003 -0.993774
0.017031 -0.072838 -0.017952 -0.066527 0.034383 -0.997192
-0.031177 0.025318 -0.006520 0.148065 -0.071044 0.986423
-0.037160 0.028021 0.016489 -0.043976 -0.138258 0.989419
-0.025615 0.019640 -0.007354 0.507265 -0.158823 0.847028
-0.027069 0.012337 0.002051 0.794854 -0.017750 0.606541
-0.019938 0.005913 -0.006400 0.191810 0.963599 -0.186242
0.042066 -0.017516 -0.002137 0.941318 0.294291 0.165267
0.038716 -0.027406 0.005567 0.463113 0.013322 0.886199
-0.066496 0.064002 0.012068 0.838452 -0.365273 -0.404443
0.028237 -0.056083 0.003024 -0.918944 0.237557 0.314814
0.025429 0.058870 -0.012245 -0.887072 0.368467 -0.278092
-0.063027 0.064122 -0.003025 -0.490240 0.202078 -0.847838
-0.058047 0.042726 0.001387 0.761608 0.647699 -0.020966
0.007402 -0.065295 -0.000404 0.099322 0.993797 0.050030
0.022649 -0.068012 -0.014499 0.870754 -0.464893 -0.160195
0.016681 -0.009260 0.009887 0.386061 -0.175080 0.905706
0.038761 0.083448 0.007009 -0.766264 0.526760 0.367918
-0.023783 -0.034818 0.007459 0.776982 -0.624408 0.080085
0.021503 -0.049551 0.003565 -0.715602 -0.692595 -0.090699
0.015715 -0.007719 -0.009406 -0.801773 -0.317620 0.506239
-0.015208 0.007908 -0.010854 -0.072603 0.028531 -0.996953
-0.067544 0.055698 -0.000027 -0.772758 -0.170704 -0.611314
-0.016368 0.001183 -0.005492 -0.014813 -0.714977 0.698992
0.019848 0.022411 -0.011584 0.001657 -0.002323 0.999996
-0.025615 0.019640 -0.007354 0.507265 -0.158823 0.847028
0.027058 -0.062424 -0.009187 0.670595 -0.724459 -0.159568
-0.059932 0.050455 0.011977 0.982008 0.185241 -0.036696
-0.002807 -0.064530 -0.005964 -0.597127 0.662738 0.451904
-0.028342 0.004390 -0.004694 0.032456 -0.331984 0.942727
-0.026060 -0.014554 0.012958 -0.283717 0.039983 0.958074
0.011983 -0.001086 -0.016310 0.767494 0.133972 -0.626901
0.004487 -0.007713 0.005801 0.448038 -0.790158 -0.418225
-0.026381 0.026305 -0.008820 0.584809 0.516105 -0.625807
-0.042866 0.031299 0.014150 0.254388 0.315597 -0.914158
0.024516 0.045753 0.008680 -0.244845 0.105515 -0.963804
-0.048120 0.035369 -0.001580 0.884807 0.298887 -0.357469
-0.022922 -0.035177 0.009986 0.127852 -0.584678 -0.801127
0.026379 -0.037431 0.004996 -0.108309 0.047375 -0.992988
-0.001963 -0.073584 0.006414 -0.669753 -0.696949 0.256306
-0.037910 0.021720 -0.004358 0.591504 0.326077 0.737426
-0.047936 0.047659 -0.004022 0.240367 0.047721 0.969508
0.023167 -0.006093 0.002378 -0.516738 -0.730780 0.446030
-0.015712 -0.046172 0.000213 0.278165 0.034922 0.959898
0.035841 0.068496 -0.009437 0.280119 0.118385 0.952638
0.000275 0.004185 -0.008382 0.505674 0.845647 0.170808
-0.040521 0.016448 0.008463 -0.693107 -0.613553 0.378359
-0.029489 0.015217 -0.009159 -0.262269 -0.091066 -0.960688
0.007646 -0.065243 -0.010192 0.108332 0.993663 0.029961
-0.040737 0.032433 0.014740 0.036135 0.150035 -0.988020
-0.025030 0.001217 -0.002788 -0.668081 -0.281143 -0.688932
0.021639 -0.059086 -0.007602 -0.799392 0.335948 -0.498108
0.009853 0.004810 0.008900 -0.654996 0.520590 -0.547692
-0.022458 -0.034618 -0.000712 0.493839 0.286070 -0.821150
-0.020545 0.017794 -0.010317 0.231007 0.267923 -0.935336
0.028368 -0.021682 -0.016975 -0.120233 0.038959 -0.991981
-0.032186 0.010542 -0.006542 -0.609470 -0.332086 -0.719906
0.006940 -0.080169 0.007028 -0.272815 -0.381751 0.883084
-0.044379 0.032110 -0.006362 -0.345391 -0.168981 -0.923120
-0.033980 0.034539 0.014180 -0.107940 0.056586 -0.992546
-0.070190 0.057895 0.010139 -0.980120 -0.092224 0.175668
0.000811 -0.004397 0.013988 0.527288 0.202401 0.825228
0.019861 -0.070189 0.006738 0.153756 -0.038241 0.987369
0.012822 0.007525 -0.013621 -0.136913 0.033579 -0.990014
0.018241 -0.069848 -0.001047 -0.033620 0.808648 -0.587331
-0.035690 0.030542 0.014235 -0.134752 0.025155 -0.990560
-0.000176 -0.076170 -0.008403 -0.790312 -0.493724 0.362828
0.041504 -0.027642 -0.011257 0.921248 -0.104415 -0.374700
-0.034728 -0.016780 0.005337 -0.919183 0.091187 0.383127
0.003043 -0.058160 0.008686 0.527638 0.222996 0.819677
-0.009656 -0.003141 -0.017197 -0.112646 0.079855 -0.990421
-0.022307 -0.013507 -0.008907 0.207376 -0.021562 0.978024
0.032168 -0.000951 -0.010388 0.626722 0.583045 -0.516990
-0.004616 -0.007322 0.007373 -0.587961 -0.808488 0.025477
0.004963 -0.069713 -0.017734 -0.724375 -0.087495 -0.683832
0.013722 -0.072810 -0.017531 -0.058421 0.225102 -0.972582
0.028795 0.051727 0.007934 -0.554165 0.185944 -0.811373
-0.024538 -0.035043 -0.009343 0.391601 -0.523603 0.756629
0.029266 -0.035455 0.006978 0.137306 -0.045121 0.989500
0.019952 -0.025316 0.008721 -0.391928 -0.182826 0.901647
0.027334 0.050537 -0.011058 -0.124968 -0.515580 0.847679
-0.014595 -0.009220 0.004487 0.931282 -0.352433 -0.092224
0.023345 0.018693 -0.006921 -0.992191 0.124479 0.007863
-0.051845 0.032718 -0.001627 -0.686219 -0.462719 -0.561243
-0.009653 -0.043732 0.010793 0.117427 -0.039288 0.992304
-0.030312 -0.025747 -0.005696 0.626157 -0.167701 -0.761449
-0.011846 -0.065415 -0.010691 -0.733900 -0.677957 -0.042021
0.028385 -0.062085 -0.000675 0.869885 -0.491924 -0.036202
0.003722 -0.063074 0.008546 0.204294 -0.031716 0.978396
0.021491 -0.032812 0.005994 -0.796127 0.016020 -0.604917
-0.030425 0.002469 -0.005634 -0.800082 -0.247221 -0.546582
-0.021043 -0.000761 -0.010869 -0.099313 0.049757 -0.993811
0.038628 0.068901 0.007914 -0.234487 0.263889 -0.935617
0.030246 0.001071 0.004676 0.764730 0.254969 0.591759
-0.068716 0.056804 0.013733 -0.863772 -0.139478 0.484195
0.019161 -0.066724 -0.017924 -0.086330 0.030741 -0.995792
0.026510 0.029959 0.000502 0.380030 -0.117206 0.917518
0.006846 -0.081592 -0.007491 -0.335402 -0.942007 0.011329
-0.028273 -0.017379 0.012350 -0.465118 0.067717 0.882655
-0.033014 0.009798 -0.005290 -0.652328 -0.387123 -0.651617
-0.040916 0.029321 0.000499 0.062920 0.339772 -0.938401
0.016945 -0.071023 0.007282 -0.194046 0.094297 0.976450
-0.063791 0.063789 0.015063 0.635822 -0.361435 -0.681979
0.032287 -0.050073 0.005924 0.343257 -0.146599 0.927730
-0.068279 0.054868 0.010324 -0.835291 -0.399723 -0.377505
-0.057455 0.052495 -0.004864 -0.226485 -0.029973 -0.973553
0.020177 0.010145 -0.014023 0.165793 0.070449 -0.983641
0.028926 -0.019160 0.007795 0.145109 -0.034971 0.988797
-0.032547 0.024060 0.013868 -0.060882 0.058701 -0.996417
0.035462 0.052453 -0.003740 -0.792340 0.388660 -0.470256
-0.003454 -0.064423 -0.006697 -0.120107 0.909570 0.397814
-0.017184 -0.048263 -0.003959 0.791426 0.472004 -0.388403
-0.014004 -0.026861 0.012012 0.115170 -0.040985 0.992500
0.034365 0.053595 -0.009588 -0.178747 0.903770 0.388907
-0.029148 -0.007709 -0.007888 -0.716835 0.159188 -0.678828
-0.032289 -0.021520 -0.007999 -0.657952 0.143299 -0.739300
0.017697 -0.024227 -0.013133 -0.167033 -0.148597 0.974689
0.032416 0.001612 -0.007428 0.764231 0.437559 -0.473807
0.019438 -0.002276 -0.008994 -0.273515 0.961432 0.028946
-0.033379 0.006169 0.006131 -0.849075 -0.442436 0.288655
-0.001192 -0.075031 0.002625 -0.729791 -0.683545 -0.013126
-0.004938 -0.048770 -0.001764 0.698916 0.661256 0.272500
-0.043640 0.036817 0.015034 0.072260 0.012223 -0.997311
-0.009214 -0.050136 -0.000939 0.004544 0.902728 0.430187
0.012316 -0.062648 -0.014509 -0.256837 -0.644692 0.720004
0.001270 -0.076969 0.000207 -0.845139 -0.520542 -0.121559
-0.028416 0.002467 -0.001722 0.130715 0.279518 -0.951201
0.034522 -0.050195 -0.005603 0.860581 -0.491680 -0.132856
-0.026575 -0.034156 0.012974 -0.098264 -0.051616 0.993821
-0.006893 -0.000024 0.003279 -0.917881 0.317432 0.238183
-0.019256 0.006844 -0.008078 0.335264 0.323794 0.884735
-0.063252 0.049536 0.015772 -0.525689 -0.512855 0.678698
-0.024357 -0.003736 -0.010282 -0.293966 0.031591 -0.955294
-0.026901 0.017302 0.015327 0.032552 -0.072499 0.996837
0.020301 -0.031829 -0.016415 -0.205811 0.042933 -0.977650
-0.000092 0.001302 -0.018172 -0.005957 0.242396 -0.970159
0.040215 0.043867 -0.001283 0.935857 -0.352069 -0.014819
-0.013817 -0.052733 0.001702 0.226532 0.946091 0.231507
0.009182 0.006418 -0.014811 0.508854 0.555906 -0.657294
0.011611 -0.008262 -0.011873 0.072374 -0.018148 0.997212
0.026049 0.052609 -0.010763 -0.403870 0.027296 0.914409
0.026291 0.035797 -0.013546 0.140372 -0.052529 -0.988704
-0.031235 -0.042901 0.004983 -0.845399 -0.405042 0.348198
0.033364 -0.016845 -0.016789 0.207827 0.196900 -0.958143
0.004165 0.004910 -0.017282 -0.090815 0.011880 -0.995797
0.044986 0.058707 -0.005528 0.888747 -0.338508 -0.309097
0.002526 -0.069660 -0.000979 -0.935180 -0.142364 0.324299
-0.002517 0.006675 -0.009830 -0.085176 0.874802 0.476934
-0.062171 0.044612 0.001504 -0.743233 -0.505158 -0.438656
0.017901 -0.034817 -0.015268 -0.996965 -0.019456 0.075379
-0.023251 -0.027889 0.013002 0.084595 -0.040623 0.995587
0.018022 -0.063982 -0.000823 0.036786 -0.777342 -0.628002
-0.033315 -0.018108 0.007213 -0.811183 0.107072 0.574906
0.034706 0.046403 0.006385 -0.644800 0.180019 -0.742850
-0.018339 -0.008725 -0.011489 -0.115336 0.052973 -0.991913
-0.007107 -0.005965 0.014635 -0.122228 -0.592751 0.796057
-0.011765 -0.031962 -0.011683 0.912259 0.246501 0.327139
0.015642 0.021338 0.009196 -0.095135 0.046112 -0.994396
-0.024999 -0.007215 -0.004990 0.054483 0.605243 -0.794174
0.028152 0.057820 0.009691 -0.895167 0.407859 -0.179797
0.014957 0.018908 0.011435 0.144107 -0.073841 0.986803
0.043041 0.056535 -0.008108 0.806491 -0.296253 -0.511670
0.026325 0.054457 -0.010937 -0.012328 0.172453 0.984941
0.034997 0.046309 -0.009488 -0.561501 0.214255 0.799257
-0.026433 -0.034535 -0.011404 -0.135469 0.034040 -0.990197
0.002288 -0.007263 0.014926 0.253904 -0.138034 0.957329
0.031046 -0.046361 -0.018278 0.243754 -0.120446 -0.962329
0.000398 -0.064017 0.003467 -0.046920 0.998519 0.027537
0.011161 -0.070099 0.008618 -0.080728 -0.093649 0.992327
-0.035063 0.019398 0.006801 0.289767 0.948354 0.129073
-0.012561 -0.003243 -0.017059 -0.214793 0.013838 -0.976562
0.001704 -0.078855 -0.016493 -0.494160 -0.648662 -0.578829
-0.000176 -0.076170 -0.008403 -0.790312 -0.493724 0.362828
0.002381 -0.079531 -0.014789 -0.441878 -0.889497 -0.116358
-0.004784 0.002106 0.015264 -0.348753 0.608045 0.713198
-0.006933 -0.066277 -0.015215 -0.222128 -0.038859 -0.974243
0.020277 -0.050213 -0.003193 -0.839746 -0.483390 0.247307
0.006548 0.001192 -0.018025 0.280955 0.136522 -0.949961
-0.032152 0.000349 0.003529 -0.978166 -0.134092 0.158778
0.021774 -0.024067 0.006242 -0.125337 0.027754 -0.991726
-0.057455 0.052495 -0.004864 -0.226485 -0.029973 -0.973553
-0.001513 0.003710 0.007808 -0.270617 0.896056 0.351923
0.004480 0.004196 0.009018 0.213072 0.623577 -0.752165
0.036897 -0.016863 -0.015400 0.526069 0.329330 -0.784087
-0.004477 -0.015018 -0.011914 0.644576 -0.727966 0.233639
0.039091 0.065725 -0.013477 0.268560 -0.089001 -0.959142
-0.030791 0.018453 0.004351 0.947391 0.251635 0.197814
0.006249 -0.014277 0.015160 -0.226676 -0.847768 0.479486
0.009069 -0.007483 -0.018977 0.384711 -0.211270 -0.898533
-0.054783 0.059894 0.017133 0.094714 0.234029 -0.967605
0.000806 0.004913 -0.003051 0.266248 0.963903 -0.001752
0.042016 0.086084 0.002047 0.561893 0.807755 0.178348
0.035077 0.068652 0.010920 0.118147 0.002618 0.992993
0.036602 -0.016561 0.005896 0.529482 0.162931 0.832528
-0.024721 0.008747 -0.004784 0.581678 0.812521 -0.038216
-0.020152 -0.057644 -0.003850 -0.694747 -0.715493 -0.073466
-0.019446 -0.032871 -0.012194 -0.112122 0.035774 -0.993050
-0.015849 -0.053242 0.008580 0.245484 0.759277 -0.602690
0.030635 0.051237 0.004042 -0.409898 -0.525399 -0.745613
0.021770 0.042641 0.009076 -0.760130 0.257703 -0.596482
-0.001739 -0.007913 -0.018089 -0.042273 -0.008574 -0.999069
0.023619 0.029363 -0.002935 -0.542747 0.293081 -0.787102
-0.020934 0.022195 0.014247 0.629393 0.655838 0.416822
0.042475 0.059643 0.000359 -0.860840 0.302807 -0.408977
0.023402 0.027497 -0.013504 0.177624 -0.053816 -0.982626
0.020694 -0.039815 0.006068 -0.802978 0.263005 -0.534841
-0.015075 -0.052565 -0.010203 -0.107308 0.861955 0.495498
-0.030180 0.008057 -0.002686 0.260595 -0.943950 0.202605
0.008368 -0.002620 0.005658 0.588949 -0.551497 -0.590754
-0.007619 -0.022553 0.010865 0.774091 -0.544286 0.323321
0.016134 0.018063 0.009064 -0.143909 0.037972 -0.988862
-0.016880 -0.031935 -0.012496 -0.132150 0.032236 -0.990705
-0.038477 0.015140 0.009697 -0.678612 -0.551252 0.485395
-0.004853 -0.015881 0.013899 -0.300932 -0.807969 0.506583
0.017199 -0.003412 0.005597 -0.731429 -0.535954 -0.421622
-0.045346 0.028035 0.014062 -0.478961 -0.445569 0.756350
0.021008 -0.006242 -0.015314 -0.124347 0.046252 -0.991160
0.026764 -0.044321 0.004670 -0.371884 0.227072 -0.900078
-0.046700 0.049840 -0.004630 0.690532 0.594310 0.412264
0.039390 0.055451 0.007990 0.576181 -0.221781 0.786657
0.000248 -0.008510 -0.004875 0.323779 -0.941929 -0.089091
-0.068014 0.051167 0.004148 -0.852590 -0.456372 -0.254589
-0.028054 -0.003822 -0.004632 0.931236 0.360022 -0.056426
-0.043843 0.036732 -0.006963 -0.163325 -0.004801 -0.986561
0.028763 0.035337 -0.012875 0.360326 -0.138399 -0.922503
-0.048596 0.025276 0.003338 -0.775171 -0.622582 -0.107242
-0.012342 -0.032689 0.011534 0.109244 -0.033786 0.993441
0.030377 0.040675 0.010027 0.321022 -0.096657 0.942127
-0.057269 0.045265 0.007749 0.760576 0.510483 0.401163
-0.063967 0.056381 -0.000021 0.740072 0.484270 0.466665
0.030328 0.007512 -0.004385 0.926078 0.334324 -0.174951
0.023416 0.012641 -0.012637 0.488991 0.052209 -0.870725
-0.031576 0.018853 0.005436 0.860336 0.372639 0.347797
0.038240 0.043761 0.005018 0.777802 -0.310496 0.546457
0.011151 -0.003391 -0.017629 0.752600 -0.024933 -0.658005
0.012112 -0.078615 -0.018705 -0.000677 0.075266 -0.997163
0.036915 -0.040390 -0.014855 0.882579 -0.268368 -0.386047
-0.012514 -0.047609 0.010958 0.117253 -0.039616 0.992312
0.043445 0.060179 -0.001706 -0.771570 0.349325 0.531650
-0.013415 -0.032150 -0.012985 0.086087 0.068547 -0.993927
0.030287 -0.045574 0.006316 0.139895 -0.043053 0.989230
0.014913 -0.071724 0.006378 0.238285 0.463854 0.853264
0.026129 0.050530 -0.013379 -0.098789 0.033917 -0.994530
-0.038604 0.029089 -0.005618 0.227459 0.047997 0.972604
-0.011028 -0.010778 -0.017206 -0.498986 -0.397587 -0.770024
-0.015696 -0.004165 -0.013301 -0.858432 -0.068190 -0.508375
-0.021383 -0.047419 -0.012545 -0.130855 0.029721 -0.990956
0.035290 -0.002734 0.000963 0.793914 0.488183 0.362460
-0.044439 0.029501 0.008909 0.714591 0.697447 0.054106
0.013601 -0.011204 -0.012098 0.003948 -0.199838 0.979821
-0.024449 -0.030964 -0.004940 0.861673 0.497907 0.098021
-0.037945 0.020818 0.010299 0.764206 0.643736 -0.039905
-0.022136 -0.004219 0.011220 -0.019758 0.633815 -0.773233
0.038118 0.054123 -0.009629 -0.387187 0.605977 0.694894
-0.005175 -0.071967 -0.008328 -0.427795 -0.550711 0.716735
-0.003070 0.005927 -0.008814 0.071078 0.611676 0.787909
0.023345 0.018693 -0.006921 -0.992191 0.124479 0.007863
-0.056337 0.042204 0.012637 0.608780 0.534896 -0.585895
-0.000984 -0.064436 -0.002351 -0.061122 0.982739 0.174608
0.036849 0.065062 -0.011573 -0.113531 -0.007400 0.993507
-0.014210 -0.061081 0.007731 -0.603024 -0.757184 0.251066
0.030654 0.059971 -0.011103 0.089793 -0.014112 0.995860
0.000030 -0.072252 -0.006807 -0.754966 -0.076859 0.651244
-0.016880 0.006637 -0.010814 -0.073522 0.063325 -0.995281
0.023023 -0.072750 0.002176 0.884757 -0.456819 -0.092312
0.042833 0.051165 0.000303 0.933540 -0.312390 0.175830
-0.034016 0.026416 0.003664 0.455621 0.310368 0.834314
0.029653 0.005863 0.003360 0.777978 0.469905 0.417061
-0.022238 -0.000735 -0.005392 -0.099776 -0.934763 0.340972
-0.027360 0.009973 0.003699 0.916657 0.228462 0.327940
0.022687 -0.036715 -0.014867 0.114082 -0.036691 0.992794
0.032140 0.050740 0.003551 -0.459954 -0.666167 -0.587081
-0.060800 0.060663 0.017344 0.299744 -0.068455 -0.951561
0.009997 0.009953 0.011514 -0.011443 0.318313 0.947917
-0.019094 -0.033281 0.008451 0.323614 -0.194591 -0.925963
0.025743 0.018819 0.008516 0.598509 -0.173548 0.782092
-0.026220 0.024896 -0.009421 0.058340 0.234803 -0.970291
-0.021472 0.003972 0.014185 -0.030765 -0.076792 0.996572
0.011217 -0.066993 -0.013878 0.522822 0.527103 -0.669940
-0.003497 0.006449 -0.014863 -0.085735 0.995889 -0.029232
0.038611 0.042611 0.003665 0.839751 -0.346805 0.417786
-0.014529 -0.002058 -0.009081 -0.121854 -0.442802 0.888301
0.003492 -0.005832 -0.010143 0.500316 -0.581759 0.641280
-0.024230 0.017587 0.015049 0.098430 -0.028018 0.994749
-0.000095 0.005784 -0.017260 0.046187 0.587458 -0.807936
-0.033353 0.029455 -0.008363 -0.145598 0.034493 -0.988742
-0.013634 -0.052578 0.010908 0.111592 -0.041627 0.992882
-0.020150 -0.026733 -0.011904 -0.119195 0.040617 -0.992040
0.028081 -0.003982 0.008255 0.353175 0.073638 0.932655
-0.016105 -0.017465 -0.009861 0.104227 -0.030873 0.994074
0.038375 0.081888 -0.012011 0.275860 0.479033 -0.833324
-0.031809 0.021113 0.004626 0.361870 0.378571 0.851900
-0.023306 -0.039916 -0.003512 0.838514 0.332446 -0.431710
0.017225 -0.012362 0.007392 -0.105108 0.063579 -0.992426
0.031633 0.042352 0.001600 -0.487355 0.152499 0.859784
-0.027204 -0.012958 0.012453 -0.410808 0.073701 0.908738
0.016107 0.028746 -0.010369 -0.411398 0.408275 0.814901
0.017141 -0.015741 0.009436 0.109510 -0.032077 0.993468
0.001332 -0.054346 0.006984 0.595698 0.418874 -0.685338
-0.008633 0.003571 -0.016850 -0.050587 0.014806 -0.998610
-0.010748 -0.003059 0.017386 -0.671006 0.013670 0.741326
0.042938 0.063761 -0.003443 -0.951263 0.293081 -0.095933
-0.046731 0.023861 0.000579 -0.757850 -0.583311 -0.292252
-0.034719 -0.013813 0.000655 -0.978132 0.201995 -0.049563
-0.048520 0.037299 -0.005818 -0.334430 -0.156206 -0.929385
-0.027656 0.002400 0.011832 -0.566983 -0.252328 0.784131
0.023788 -0.015317 -0.016081 -0.134573 0.046531 -0.989811
0.034365 0.053595 -0.009588 -0.178747 0.903770 0.388907
0.016867 0.017348 0.011228 0.104446 -0.056786 0.992908
-0.026289 -0.037480 -0.006829 0.689550 -0.035427 -0.723371
-0.061434 0.043725 0.012417 -0.654215 -0.623038 0.428751
0.004050 -0.058881 0.006981 0.748526 0.644530 -0.155851
-0.036331 0.020804 -0.005044 0.305519 0.708690 0.635938
0.033597 0.046617 -0.010266 -0.453661 0.143977 0.879467
-0.024538 -0.035043 -0.009343 0.391601 -0.523603 0.756629
0.023867 -0.022512 -0.016424 -0.135809 0.038034 -0.990005
-0.016154 0.003299 0.013687 0.124441 -0.038231 0.991490
0.038035 0.074116 -0.013940 0.040787 0.045584 -0.998128
-0.060176 0.060802 0.019900 -0.148548 0.067738 0.986583
0.012744 -0.067855 -0.014435 -0.483984 0.785890 -0.384885
0.038009 -0.044133 0.000762 0.880617 -0.469683 0.062535
-0.006559 -0.021124 0.010977 0.729341 -0.505281 0.461252
0.022912 0.021066 0.010390 0.303063 -0.088878 0.948817
0.027669 -0.063089 0.005127 0.714554 -0.362608 0.598271
-0.041273 0.039629 -0.007116 -0.092641 0.064320 -0.993620
-0.014830 -0.004202 0.012993 -0.170085 -0.028538 0.985016
0.015550 0.000538 0.011877 0.821754 0.229335 0.521657
0.041710 -0.034157 -0.000818 0.983389 -0.145096 0.109057
-0.061173 0.042505 0.010596 -0.721827 -0.624558 0.298149
0.015845 0.018742 0.001562 -0.797410 0.545542 0.257917
-0.048049 0.037910 -0.002996 0.746505 -0.346054 0.568310
-0.026031 -0.029288 -0.005576 0.624450 0.728131 -0.282643
0.041726 0.080734 -0.008535 -0.531964 -0.523382 0.665646
-0.007388 0.000859 0.016729 0.621391 -0.162635 0.766435
-0.037845 0.012003 0.000461 -0.772001 -0.613281 -0.167037
0.029649 0.011497 -0.002052 0.993752 0.100809 -0.047901
0.037842 -0.044798 -0.001776 0.832265 -0.551062 0.060541
-0.053440 0.056591 -0.003096 0.458500 0.299598 0.836671
-0.024230 -0.052512 -0.009981 -0.706765 -0.622505 -0.336112
0.049105 0.068145 -0.001092 0.965729 -0.257303 0.034086
-0.010188 0.001597 -0.008881 0.184854 0.904915 0.383350
-0.010224 -0.002331 -0.004823 -0.779291 -0.105223 0.617765
0.033832 0.047926 -0.003622 -0.538779 0.133028 -0.831878
0.021947 0.022866 0.008428 -0.432927 -0.093333 -0.896584
0.028962 0.049823 -0.013654 -0.021741 0.021408 -0.999534
-0.007130 -0.054892 -0.007218 0.924659 -0.030797 0.379548
-0.018137 -0.036387 -0.000381 0.843890 0.460801 -0.274795
0.015525 -0.059428 0.007932 -0.291548 -0.019345 0.956361
-0.051693 0.057608 0.017037 0.366440 0.535061 -0.761204
0.032183 0.074553 -0.012123 -0.910231 0.360690 0.203426
-0.018620 -0.022052 -0.009821 0.141598 -0.051946 0.988560
0.022004 0.036182 0.008880 -0.181288 0.033353 -0.982864
-0.009165 -0.049894 -0.014265 -0.149917 0.040503 -0.987869
0.024712 -0.069235 0.001000 0.884556 -0.452360 -0.113711
-0.043327 0.033792 0.016971 -0.124263 -0.218242 0.967951
0.029783 0.029938 0.008360 0.579133 -0.215977 0.786104
0.003942 -0.064793 -0.015064 0.415366 0.609531 -0.675236
0.032619 -0.036654 -0.018254 -0.089389 0.051527 -0.994663
0.026086 -0.046667 -0.002791 -0.109814 0.892954 0.436548
0.017231 -0.043507 -0.014171 -0.191125 0.072360 0.978895
-0.021784 -0.046361 -0.010117 0.296995 0.499275 0.813952
-0.016667 -0.017336 -0.012012 -0.110861 0.052808 -0.992432
-0.012525 0.000350 -0.006522 0.100269 0.193031 0.976056
0.007271 -0.000499 0.016429 -0.227449 -0.374544 0.898879
0.002423 -0.061756 -0.016203 0.539600 0.262494 -0.799956
0.025501 0.028361 0.010234 0.297212 -0.100704 0.949486
0.014528 -0.076829 -0.017906 0.137321 0.197675 -0.970602
0.030545 -0.021033 0.007481 0.145937 -0.043770 0.988325
0.019516 0.037287 -0.013210 -0.114816 0.059099 -0.991627
0.013690 0.032113 -0.012515 -0.817725 0.381964 -0.430614
0.028143 0.055845 0.008696 -0.551855 0.254255 -0.794236
0.003700 -0.065530 0.003722 0.774228 0.603455 -0.190822
-0.033844 -0.037821 -0.004257 -0.958159 -0.206766 -0.197936
-0.031850 -0.001317 -0.000532 -0.955862 -0.003185 -0.293798
-0.006559 -0.021124 0.010977 0.729341 -0.505281 0.461252
0.017033 -0.060718 -0.009215 -0.402860 0.910420 0.094017
0.004106 0.007114 -0.017943 -0.228015 0.400586 -0.887434
-0.052592 0.031210 0.001639 -0.775962 -0.565074 -0.280313
-0.050745 0.034123 -0.003502 -0.575492 -0.370199 -0.729220
0.034587 -0.006801 0.003829 0.790824 0.235165 0.565063
-0.068503 0.063217 0.013434 -0.849277 0.230069 0.475180
0.032526 0.067549 -0.011305 -0.099207 -0.108739 0.989108
-0.014279 -0.050236 -0.011170 0.238968 -0.018695 0.970847
-0.053220 0.052297 0.015473 0.323460 -0.846024 -0.423813
0.010043 0.004388 0.004704 -0.551890 0.169566 -0.816495
0.019031 0.028181 0.005342 -0.419338 0.861556 -0.286140
-0.024456 -0.030647 -0.003101 0.938958 0.292938 -0.180403
0.015934 -0.055446 0.007842 -0.632626 0.177440 0.753856
0.044890 0.063042 -0.009029 0.737381 -0.284021 -0.612863
0.020756 0.035877 -0.011045 0.126177 -0.064609 0.989901
-0.002330 -0.012712 0.013448 0.409176 -0.488568 0.770634
-0.006242 -0.006818 0.016784 -0.610201 -0.284740 0.739309
0.014008 -0.063484 -0.016590 -0.677801 -0.261118 -0.687316
0.029490 -0.042124 -0.001846 -0.944994 0.198985 0.259599
0.019066 -0.072851 0.006799 0.140079 -0.052162 0.988765
-0.008327 0.002317 0.017829 -0.171195 0.149467 0.973834
0.032020 0.064476 0.011145 -0.446738 0.166590 0.879018
-0.025268 -0.050358 -0.011163 -0.627691 -0.438476 -0.643229
0.029823 -0.058075 -0.007329 0.867475 -0.474035 -0.150921
0.010928 -0.012785 0.014790 0.553126 -0.585632 0.592526
0.015708 -0.074932 -0.018247 0.135835 0.007981 -0.990699
0.034840 0.051158 -0.006491 -0.586553 -0.677450 0.443867
-0.023825 -0.029710 -0.008920 0.325255 0.537046 0.778325
0.026434 -0.033125 -0.017234 -0.134546 0.046538 -0.989814
-0.060068 0.049386 0.012827 0.954879 -0.286068 -0.079818
-0.006802 -0.047717 -0.014620 0.217365 0.302973 -0.927879
0.047106 0.072824 -0.002814 -0.759809 -0.626615 0.173329
0.007813 0.018258 -0.012130 -0.894911 0.265719 -0.358509
-0.010939 -0.015072 -0.010160 0.070859 -0.019588 0.997294
-0.038700 0.031346 -0.007748 -0.129675 0.008771 -0.991518
0.042501 -0.023195 -0.007296 0.980442 0.057630 -0.188179
0.025156 -0.056441 0.006603 0.152104 -0.035723 0.987719
0.029690 0.009350 -0.005150 0.947066 0.231017 -0.222928
0.020639 -0.071368 -0.016582 0.817217 -0.405686 -0.409360
0.017078 -0.078226 -0.011484 0.859897 -0.455397 -0.230632
-0.059511 0.049553 0.009955 0.955508 0.224687 0.191104
-0.014595 -0.009220 0.004487 0.931282 -0.352433 -0.092224
0.034059 0.071177 -0.011371 0.215956 0.029657 0.975953
0.031046 -0.046361 -0.018278 0.243754 -0.120446 -0.962329
0.016577 -0.001218 0.010831 0.673828 0.085670 0.733905
0.040183 -0.019798 -0.013268 0.821720 0.049884 -0.567704
-0.013858 -0.052399 -0.013730 -0.137741 0.023732 -0.990184
0.041384 0.068726 0.004811 -0.799672 0.289839 -0.525850
-0.056944 0.061985 0.017366 0.163155 0.119082 -0.979388
-0.039195 0.022247 0.006389 0.783497 0.620677 0.029881
-0.053715 0.054427 -0.003296 0.213915 0.036737 0.976161
0.013470 -0.069597 -0.017382 -0.381083 0.120458 -0.916660
0.023760 0.028122 0.007102 -0.204549 0.968741 -0.140361
-0.005473 -0.068658 0.001695 -0.169489 -0.338522 -0.925568
0.022799 -0.063385 -0.009968 0.136743 -0.832530 0.536838
-0.063514 0.065495 0.014344 0.605581 -0.435579 -0.665990
0.017985 0.028272 0.009333 -0.255978 0.263895 -0.929965
0.030248 -0.030306 0.004636 -0.127217 0.034129 -0.991288
0.010923 0.004501 0.016047 0.491576 0.366849 0.789794
0.029271 0.025447 -0.010187 0.677955 -0.235618 -0.696319
-0.023304 -0.014809 0.003117 0.931110 -0.364729 -0.002630
-0.038769 0.039684 0.014784 -0.061351 0.025061 -0.997802
-0.038110 0.019277 0.013299 -0.429477 -0.462723 0.775524
-0.031016 0.005202 -0.002377 0.949304 0.312419 0.034865
0.017424 -0.062194 0.004693 -0.621642 0.390126 -0.679237
0.026353 -0.036167 -0.014993 0.085682 -0.026415 0.995972
-0.024777 -0.053094 0.000938 -0.705339 -0.704917 0.074765
0.036897 -0.016863 -0.015400 0.526069 0.329330 -0.784087
0.007530 -0.066805 0.008407 -0.590037 0.200286 0.782139
0.045977 0.062312 0.003254 0.867445 -0.274242 0.415126
0.003796 -0.064075 -0.015220 0.929691 0.128306 -0.345272
0.001041 -0.066998 -0.016271 0.033209 0.175427 -0.983932
0.027854 -0.024650 -0.005021 -0.938967 -0.235475 0.250783
-0.016037 0.012904 0.014015 0.126196 -0.039924 0.991202
-0.039491 0.029678 0.000532 0.133201 0.333353 -0.933345
-0.023221 0.015480 -0.000266 0.781190 0.557824 0.280313
0.012937 -0.051307 -0.015095 -0.963735 0.194214 0.183021
0.016419 -0.005930 -0.006251 -0.867069 -0.402919 0.292997
-0.006247 -0.051134 0.005476 -0.217983 0.975775 -0.018601
-0.015609 0.006139 0.013691 0.112100 -0.041070 0.992848
-0.024894 -0.014825 -0.007888 0.987222 -0.084954 0.134818
-0.011654 -0.029974 0.011565 0.151380 -0.018870 0.988295
-0.024359 -0.017214 -0.008518 0.465221 0.064701 0.882827
-0.036599 0.014147 -0.004539 -0.661470 -0.429651 -0.614701
0.017082 0.005586 -0.011829 0.087335 -0.062782 0.994199
-0.017226 -0.009397 -0.006576 0.524817 -0.847015 -0.084455
0.016380 -0.076039 -0.017966 0.157541 -0.267872 -0.950487
0.024906 -0.044530 -0.007662 -0.600378 0.799174 -0.029427
-0.008256 -0.010990 -0.017913 -0.180237 -0.124654 -0.975692
0.028988 -0.009324 -0.015847 0.156485 0.212238 -0.964607
0.041618 -0.016897 -0.007570 0.957455 0.214842 -0.192675
0.047424 0.071445 -0.002950 -0.983845 0.161060 0.078164
0.012874 -0.010680 0.014222 0.696523 -0.419773 0.581933
0.033315 -0.014397 -0.016294 0.292735 0.208934 -0.933088
0.014285 -0.004102 -0.014361 0.201310 -0.019374 -0.979336
0.009744 -0.010453 -0.011555 0.146764 -0.038808 0.988410
0.024205 0.025457 -0.008353 -0.156955 -0.815989 0.556352
0.016777 -0.044721 -0.016703 -0.327922 0.108454 -0.938459
0.032648 0.051901 -0.001872 -0.860383 0.429126 -0.274940
0.022638 0.048623 -0.013150 -0.230784 0.144680 -0.962188
0.036053 0.080211 -0.013161 -0.197491 0.364825 -0.909890
0.021845 0.032476 0.011184 0.134199 -0.024391 0.990654
-0.007525 -0.003457 0.009826 -0.637285 0.064063 -0.767960
0.038690 0.084523 0.004605 -0.981317 0.190621 -0.026080
0.016777 -0.044721 -0.016703 -0.327922 0.108454 -0.938459
0.039961 0.079126 -0.010367 -0.257661 -0.298183 0.919074
-0.001739 -0.007913 -0.018089 -0.042273 -0.008574 -0.999069
-0.019755 -0.024978 -0.009764 0.157567 -0.024661 0.987200
0.020057 0.018669 0.003807 -0.533564 0.378126 0.756525
0.030697 -0.026124 -0.017511 -0.126292 0.051454 -0.990658
-0.011010 0.006858 -0.009844 0.703167 0.633996 0.321876
-0.026575 -0.034156 0.012974 -0.098264 -0.051616 0.993821
-0.015051 -0.061492 0.003335 -0.585277 -0.792359 0.172100
-0.009442 -0.028328 0.011025 0.847560 -0.118564 0.517285
0.002247 -0.010801 -0.017941 -0.024561 -0.592122 -0.805474
0.006033 -0.064915 -0.012665 0.020343 0.988948 0.146864
0.033017 0.041832 0.009022 0.482238 -0.171457 0.859098
0.002513 0.005508 -0.017170 -0.193092 0.311820 -0.930314
-0.043089 0.031208 0.001104 0.233496 0.310581 -0.921422
-0.013556 0.001083 0.013199 -0.213547 0.107478 0.971003
-0.060507 0.052307 0.015772 0.299782 0.756123 -0.581729
-0.060161 0.046345 0.001658 0.840043 0.530932 0.111535
-0.031809 0.021113 0.004626 0.361870 0.378571 0.851900
0.042684 -0.027723 -0.001706 0.988160 -0.095404 0.120157
0.023900 -0.027159 0.005968 -0.124254 0.079896 -0.989029
0.040450 -0.032853 0.004106 0.786181 -0.075289 0.613393
0.022672 -0.071794 -0.001251 0.496237 -0.254686 -0.829990
-0.008343 -0.051544 0.001136 -0.238510 0.870831 0.429844
0.006813 -0.071491 0.007587 0.418721 0.250464 0.872892
0.005899 -0.081680 -0.017824 -0.332473 -0.801638 -0.496828
-0.041506 0.034951 -0.007236 -0.130855 0.013195 -0.991314
0.030570 0.037948 0.002680 -0.799941 0.391130 0.455096
0.030038 -0.000905 0.006449 0.648979 0.309494 0.695011
-0.029992 -0.042848 -0.009750 -0.767645 -0.265283 -0.583392
0.020152 -0.070751 -0.010129 0.822498 0.090516 0.561520
0.015513 -0.004179 0.007887 -0.204887 -0.110852 -0.972488
0.045515 0.074807 0.001886 -0.983935 0.109714 -0.140835
0.008368 -0.002620 0.005658 0.588949 -0.551497 -0.590754
0.011641 -0.066570 -0.007327 0.315585 0.947986 0.041584
0.019829 -0.060436 -0.013464 -0.155141 0.972433 0.174084
0.017296 -0.077457 -0.013845 0.829246 -0.546979 -0.114739
0.011280 -0.015685 -0.014438 -0.215385 -0.048315 -0.975333
-0.003204 -0.062912 0.002057 0.841740 0.481542 -0.244113
0.023907 0.045469 -0.011014 0.146943 -0.074671 0.986323
-0.046516 0.023726 0.008474 -0.719751 -0.621131 0.310089
-0.000218 -0.063776 -0.013334 0.277199 0.652148 0.705594
-0.004955 -0.069307 0.008676 -0.416959 -0.496845 0.761111
-0.037139 0.016129 -0.005226 -0.620287 -0.374209 -0.689356
0.042691 -0.021082 -0.002284 0.964259 -0.018635 0.264304
0.007099 -0.012132 -0.011145 0.114769 -0.179113 0.977111
-0.024375 0.023987 -0.007686 0.650481 0.433380 0.623743
-0.040813 0.040749 0.014814 0.322010 0.291518 -0.900737
0.023824 -0.039966 0.007529 0.156361 -0.036662 0.987019
-0.026827 -0.023589 0.007509 0.762490 -0.429014 0.484310
0.042062 -0.017514 -0.005079 0.984495 0.158560 -0.075016
0.017480 0.025892 0.009246 -0.547349 -0.064905 -0.834384
-0.058831 0.061397 0.017731 0.047120 -0.102413 -0.993625
0.019031 0.028181 0.005342 -0.419338 0.861556 -0.286140
-0.023533 -0.011178 -0.006065 0.604308 -0.784035 -0.141776
-0.056405 0.036214 0.001946 -0.768227 -0.557556 -0.314578
0.028060 0.034088 0.001727 -0.529998 0.048393 0.846617
0.000811 -0.004397 0.013988 0.527288 0.202401 0.825228
-0.022305 -0.036880 -0.012015 -0.121859 0.035884 -0.991899
-0.030822 0.023051 0.003142 0.579832 0.555364 0.596126
-0.028925 -0.037877 0.012022 -0.487460 -0.154317 0.859400
0.022702 -0.029326 0.005833 -0.230416 0.071092 -0.970492
-0.064120 0.045311 0.008087 -0.778328 -0.624041 0.069123
0.033186 0.025905 -0.001897 0.928277 -0.367065 -0.059709
-0.007727 -0.007568 0.013930 0.641429 -0.106206 0.759795
-0.035627 -0.026615 -0.001367 -0.960812 -0.046617 -0.273253
0.037282 -0.044213 -0.008771 0.864644 -0.466636 -0.186123
0.022668 0.034762 -0.011419 0.077784 -0.055642 0.995416
0.028169 -0.032419 0.007278 0.128767 -0.053020 0.990257
0.018736 -0.008363 0.009707 0.129950 -0.080138 0.988277
0.035622 0.032488 0.000851 0.923248 -0.339016 0.180781
-0.000790 -0.054476 -0.013680 0.729981 0.366242 0.577057
0.034772 0.031611 -0.004830 0.914870 -0.318363 -0.248311
-0.036852 0.030166 0.003529 0.669604 0.636837 0.382189
-0.017744 -0.050450 -0.008042 0.957311 -0.282085 0.063119
0.014002 -0.008164 0.014649 0.699969 -0.334535 0.630975
-0.049505 0.041079 -0.003014 0.052687 0.630432 0.774454
0.013515 -0.002008 0.016002 0.450748 0.017326 0.892483
0.021045 -0.043591 -0.014781 0.171837 0.034927 0.984506
-0.008030 -0.002224 0.016572 0.531880 -0.157691 0.832008
-0.057986 0.042203 0.014698 -0.554265 -0.504743 0.661835
-0.054081 0.052502 0.014128 -0.120599 -0.879477 -0.460409
0.041713 -0.032882 -0.007556 0.966576 -0.201428 -0.158613
-0.004870 -0.049336 -0.004281 0.617047 0.549060 -0.563726
0.034879 0.054313 0.007880 -0.298359 0.268926 -0.915784
0.004758 0.002429 0.006569 0.333660 0.941882 0.039098
-0.009777 -0.050440 -0.012109 0.097584 0.449055 0.888160
-0.062131 0.062237 0.016682 0.379138 -0.206121 -0.902091
0.035251 0.034646 -0.006658 0.854095 -0.338710 -0.394712
0.011224 -0.060701 -0.015385 -0.960707 0.129981 0.245250
0.042684 -0.027723 -0.001706 0.988160 -0.095404 0.120157
-0.049596 0.055750 0.017112 0.677916 0.582741 -0.448154
0.028921 0.038443 -0.011145 -0.377471 0.120571 0.918139
-0.055340 0.047452 0.018435 -0.182410 -0.251582 0.950491
-0.019494 -0.021135 0.012902 0.114818 -0.045487 0.992345
-0.021673 -0.040531 0.003882 0.775039 0.181477 0.605294
-0.026820 -0.040771 -0.008570 0.886226 0.348355 0.305374
0.021415 -0.012579 0.009073 0.134883 -0.061825 0.988931
0.033773 0.054805 -0.011492 -0.197553 0.373330 0.906420
-0.018351 -0.015181 0.013002 0.117372 -0.047032 0.991974
0.031842 0.000604 -0.008790 0.667328 0.491129 -0.559880
-0.015191 -0.023493 -0.012404 -0.116516 0.055402 -0.991642
0.023998 0.028429 0.005806 -0.198454 0.979967 0.016755
0.007193 0.007235 -0.015990 0.527568 0.656795 -0.538788
0.013188 0.013143 0.002986 -0.874798 0.476968 -0.085028
0.013413 -0.018721 -0.014810 -0.525204 -0.408054 -0.746762
-0.000183 -0.059494 -0.013500 0.156077 0.071520 0.985152
0.034129 0.061666 0.010532 0.156278 -0.046512 0.986617
-0.047986 0.051700 0.016065 0.093211 0.168405 -0.981301
0.015376 -0.065123 -0.009529 -0.361018 0.052329 0.931089
0.022859 -0.045749 -0.007632 -0.312440 0.862056 -0.399050
-0.007614 -0.041855 0.008552 0.612088 0.443228 -0.654902
-0.049735 0.035347 -0.004737 -0.488862 -0.283180 -0.825120
0.027891 -0.016636 0.008020 0.139793 -0.039800 0.989381
0.013783 0.013589 0.001709 -0.841922 0.177783 -0.509472
0.027526 -0.017402 0.005787 -0.182867 0.040833 -0.982289
-0.061116 0.065818 0.018651 -0.309640 0.372924 0.874672
0.039517 -0.010289 -0.000150 0.828498 0.462994 0.315005
-0.019410 -0.057000 0.003888 -0.648153 -0.707452 0.281797
0.034269 -0.049917 -0.007578 0.849733 -0.499205 -0.169554
0.031247 0.002724 0.003039 0.851362 0.222570 0.475022
-0.007025 -0.002470 0.016368 -0.310424 -0.171676 0.934967
0.032462 0.050726 -0.000012 -0.672444 0.486124 0.558123
0.025331 -0.040510 -0.014914 0.094704 -0.060807 0.993647
-0.026735 -0.050553 -0.004596 -0.795191 -0.579796 -0.177503
-0.005337 -0.007694 -0.008058 -0.187985 -0.789290 0.584536
-0.011959 -0.035398 -0.013136 0.549988 0.157415 -0.820203
-0.019384 -0.049243 0.008896 0.506375 0.584495 -0.633995
0.028399 -0.009130 0.005090 -0.919118 -0.373100 -0.126565
-0.012725 -0.030515 -0.012692 0.490628 -0.083995 -0.867312
0.042951 0.062828 -0.001851 -0.599085 0.285747 0.747961
0.007813 0.018258 -0.012130 -0.894911 0.265719 -0.358509
-0.064964 0.062378 -0.002369 -0.571767 0.173945 -0.801764
-0.017771 -0.039635 0.011878 0.113580 -0.042600 0.992615
0.020610 -0.072133 -0.005468 0.979274 0.175986 -0.100259
0.004758 0.002429 0.006569 0.333660 0.941882 0.039098
-0.025039 -0.023647 0.010994 0.096270 -0.215182 -0.971817
0.031619 0.042966 -0.003153 -0.503807 0.181182 -0.844601
0.024209 -0.031002 0.005659 -0.157365 0.013423 -0.987449
-0.062171 0.044612 0.001504 -0.743233 -0.505158 -0.438656
0.017259 -0.050151 -0.016961 -0.124100 0.052202 -0.990896
-0.012430 -0.033128 -0.011309 0.659005 -0.276106 0.699627
-0.060847 0.042616 0.001497 -0.745402 -0.523781 -0.412346
0.008368 -0.002620 0.005658 0.588949 -0.551497 -0.590754
0.038356 0.055509 0.006231 -0.600978 0.161697 -0.782738
-0.000749 -0.012693 0.013061 -0.027664 -0.850867 0.524653
0.035499 -0.041258 -0.017264 0.714889 -0.279721 -0.640850
-0.054108 0.058483 -0.004239 0.668574 0.726665 -0.158009
0.012321 0.003022 0.004455 -0.046827 -0.192648 -0.980150
0.005859 -0.004370 0.013593 0.045287 -0.034091 0.998392
0.033481 0.046300 0.009640 0.371041 -0.134463 0.918830
-0.068325 0.053456 0.012683 -0.860446 -0.352238 0.368186
0.022984 -0.038164 0.005411 -0.216362 0.025377 -0.975983
0.028161 -0.005733 0.008267 0.299847 0.041826 0.953070
0.022095 -0.033268 0.007737 -0.546272 -0.005407 0.837590
-0.032957 0.017225 -0.008251 -0.373826 -0.160962 -0.913425
0.017669 -0.069629 -0.002852 0.382407 0.919466 0.091359
0.025555 -0.027280 0.007858 0.137083 -0.060695 0.988698
-0.025182 -0.005502 -0.007726 0.469934 0.009768 0.882647
0.013381 -0.067618 -0.017074 -0.645950 0.227098 -0.728818
0.041553 0.083901 0.006479 0.470024 0.632379 0.615771
0.035004 -0.049522 -0.001910 0.917949 -0.389952 0.072856
-0.033823 -0.025470 -0.006030 -0.873126 0.045858 -0.485332
0.011573 0.006020 0.004288 -0.452499 0.017468 -0.891594
-0.019256 0.006844 -0.008078 0.335264 0.323794 0.884735
-0.034459 0.027711 -0.005988 0.153405 -0.017567 0.988007
-0.067663 0.062393 0.000440 -0.793908 0.215162 -0.568696
-0.025048 -0.016625 -0.006228 0.997221 -0.052850 -0.052516
0.043017 0.075372 -0.012567 0.467050 0.173510 -0.867040
0.030906 0.051817 0.010666 0.135481 -0.045428 0.989738
-0.034603 -0.035704 -0.001717 -0.961222 -0.212197 -0.176140
-0.005380 -0.051334 0.000950 0.901005 0.402187 0.162591
0.007718 0.006448 0.009420 -0.350778 -0.036976 -0.935728
-0.006337 0.004631 0.013253 0.571970 0.685072 0.451139
-0.068946 0.054182 0.010965 -0.943011 -0.237117 -0.233467
-0.038907 0.031331 0.014618 -0.006035 0.094321 -0.995524
0.035675 -0.044967 -0.012560 0.764009 -0.549322 -0.338431
-0.003674 -0.006505 -0.017925 -0.143182 -0.014719 -0.989587
-0.028536 0.015354 -0.007034 0.493087 0.013079 0.869882
0.013634 -0.067412 -0.000595 0.376016 0.915320 -0.144227
0.029532 0.013563 -0.000048 0.994966 -0.018412 0.098504
0.020482 -0.077417 0.001781 0.690155 -0.718536 -0.085978
-0.012200 -0.015084 0.012330 0.066660 -0.089794 0.993727
-0.031598 -0.007379 0.007053 -0.827044 0.014629 0.561947
-0.029088 0.028121 0.013557 -0.042564 0.076936 -0.996127
0.004487 -0.007713 0.005801 0.448038 -0.790158 -0.418225
-0.036331 0.020804 -0.005044 0.305519 0.708690 0.635938
-0.028806 0.016836 0.002712 0.306323 0.362969 0.880011
-0.063398 0.068759 0.015881 -0.372436 0.698213 0.611384
0.008602 -0.000216 0.004610 0.175376 0.060163 -0.982662
-0.035357 -0.033403 0.000271 -0.983181 -0.180754 -0.026143
-0.032720 -0.040175 -0.004635 -0.863787 -0.467777 -0.187231
0.021943 0.028153 0.008692 -0.153571 0.718479 -0.678383
-0.019915 -0.040511 0.009766 -0.090075 0.049671 -0.994696
0.044483 0.060784 -0.008378 0.767564 -0.336560 -0.545502
0.047212 0.081262 -0.001183 0.856887 0.515400 0.010354
-0.024074 -0.036554 -0.003638 0.865423 0.042209 -0.499261
0.037649 0.067122 0.007134 -0.256501 0.106376 -0.960672
-0.004933 0.003585 -0.007481 -0.536746 0.821678 0.191701
0.019775 0.028101 0.008568 -0.145730 0.809031 -0.569414
0.036053 0.080211 -0.013161 -0.197491 0.364825 -0.909890
-0.003844 0.005615 0.009949 -0.205899 0.830716 -0.517220
0.008847 -0.082101 -0.018124 -0.175244 -0.864670 -0.470782
0.014454 -0.063122 -0.013024 -0.897296 0.404622 0.176471
-0.015330 -0.000036 0.011076 -0.102237 0.066371 -0.992543
-0.057452 0.042930 -0.002611 -0.556029 -0.385727 -0.736238
0.026742 -0.064041 -0.001609 0.231034 -0.567811 -0.790072
-0.043327 0.033792 0.016971 -0.124263 -0.218242 0.967951
-0.014097 -0.043069 0.008983 -0.115976 0.047829 -0.992100
0.022016 -0.047578 -0.010229 -0.652712 0.715549 -0.248910
-0.016658 -0.009369 -0.000711 0.546955 -0.833175 -0.081605
0.023760 0.028122 0.007102 -0.204549 0.968741 -0.140361
-0.022723 -0.024863 0.013123 0.100882 -0.050504 0.993616
0.004579 -0.013019 -0.016199 -0.553741 -0.827962 -0.088594
-0.043940 0.039967 -0.004163 0.546283 -0.362080 0.755296
-0.001851 -0.001933 -0.019008 -0.070826 0.086003 -0.993774
0.016042 -0.004474 -0.006715 -0.928168 0.165379 0.333399
-0.027013 -0.036786 -0.011369 -0.172340 0.026215 -0.984689
-0.065198 0.071032 0.009289 -0.409163 0.911687 0.037585
0.017816 -0.079443 -0.008744 0.802993 -0.565393 -0.188502
0.006240 0.010488 -0.012789 -0.167375 0.559352 -0.811857
0.028204 0.028654 -0.008278 -0.309221 0.935062 0.173326
-0.067633 0.058394 0.015652 -0.761537 -0.058483 0.645477
-0.022276 -0.054825 0.004385 -0.570883 -0.777616 0.263450
-0.058781 0.047600 -0.000831 0.616795 0.178376 0.766646
-0.013912 -0.017026 0.012369 0.116762 -0.051733 0.991812
0.002955 -0.007755 -0.001262 0.507599 -0.832191 -0.223163
-0.054754 0.061778 0.017819 0.585973 0.603168 -0.541133
-0.035000 0.020505 -0.003261 0.072447 0.951420 -0.299253
0.026620 -0.053970 0.004119 -0.344866 -0.182771 -0.920686
-0.020255 -0.034142 -0.000721 0.497375 0.691854 -0.523408
-0.048975 0.037913 0.011704 0.693290 0.636405 -0.338139
-0.032666 0.033768 -0.006297 0.624786 0.544919 0.559201
-0.006898 -0.047117 -0.012110 0.398451 0.189757 0.897346
0.017041 -0.048674 -0.014294 0.055164 -0.110649 0.992327
-0.037685 0.039692 -0.005732 0.685726 0.546708 0.480510
-0.048259 0.035589 -0.002976 0.814089 0.266854 0.515798
-0.013528 -0.028868 0.011862 0.120785 -0.046810 0.991574
-0.031604 -0.012561 -0.006656 -0.763474 0.195514 -0.615534
-0.058831 0.061397 0.017731 0.047120 -0.102413 -0.993625
-0.020777 0.015425 -0.008122 0.080478 0.001722 0.996755
0.037848 0.047616 0.007064 0.656968 -0.243991 0.713345
-0.040207 0.024164 0.008625 0.836729 0.543648 0.065816
0.036800 0.058544 0.010003 0.302585 -0.068346 0.950669
0.029415 0.027336 -0.010600 0.644669 -0.216380 -0.733200
0.019647 0.038916 -0.013112 -0.132584 0.058534 -0.989442
-0.025815 0.009499 -0.004909 0.695950 0.697051 -0.172546
-0.012295 -0.001847 -0.007139 -0.588345 -0.487685 0.644991
-0.046832 0.040554 0.004760 0.713950 0.652082 0.255080
0.006260 -0.081293 -0.003785 -0.432276 -0.901382 0.025468
0.037909 0.059808 0.007246 -0.411456 0.137475 -0.901002
0.041108 0.086941 0.000692 0.357917 0.928638 0.097603
-0.003148 -0.016154 0.008902 0.246207 -0.494037 -0.833852
-0.002070 -0.015451 0.016103 0.314359 -0.481627 0.818055
0.025841 -0.046703 0.002024 -0.192647 0.981253 0.005470
0.024732 -0.045960 -0.013307 -0.532066 0.823795 0.195622
-0.057849 0.051264 -0.001524 0.610516 -0.009569 0.791946
-0.028867 0.021765 -0.004225 -0.089244 0.963320 0.253082
0.024025 0.038917 0.010983 0.082538 -0.043104 0.995655
-0.013292 -0.020227 -0.012440 -0.106617 0.057760 -0.992621
-0.015655 -0.050992 0.011181 0.110222 -0.031429 0.993410
0.022996 0.019090 -0.012807 0.399062 -0.070076 -0.914242
0.025518 0.012135 0.007922 0.645132 -0.032927 0.763362
0.043559 0.052690 -0.000715 0.925524 -0.365196 0.100183
-0.039568 0.025014 0.004089 0.423826 0.258946 0.867939
0.007437 -0.004513 0.015027 -0.825259 0.017074 0.564497
-0.035013 0.012785 -0.005243 -0.647500 -0.404394 -0.645917
-0.033137 -0.013692 -0.004935 -0.855863 0.127793 -0.501165
-0.012873 -0.009958 -0.009697 0.150181 0.000915 0.988658
-0.003315 -0.052266 0.007250 0.433674 0.242383 -0.867858
0.022001 0.029794 -0.011607 0.021055 0.355395 0.934479
0.024205 -0.054721 -0.018055 -0.129440 0.046187 -0.990511
-0.023173 -0.013654 -0.000785 0.915135 -0.352139 -0.196283
-0.021735 -0.015915 0.011036 -0.074817 0.019097 -0.997014
0.020287 -0.046772 -0.001156 -0.249459 0.920502 0.300744
0.032424 -0.014415 0.007370 0.279646 0.039088 0.959307
0.028868 -0.033852 -0.017623 -0.119449 0.048796 -0.991641
-0.051283 0.050648 0.018991 0.114518 -0.048485 0.992237
0.027374 0.010399 -0.008678 0.819904 0.019736 -0.572161
-0.027685 0.029793 0.015530 0.667782 0.369241 0.646319
-0.049256 0.052593 -0.005297 0.529349 0.624245 -0.574550
0.009116 -0.079838 0.007784 -0.155178 0.017885 0.987725
-0.025782 -0.051744 -0.006304 -0.814608 -0.570026 -0.107161
-0.000525 0.005847 0.009385 -0.049286 0.777410 -0.627060
0.025391 0.028899 -0.004713 -0.767948 0.567411 -0.297154
-0.008401 0.000373 0.018038 0.296539 -0.052819 0.953559
-0.021565 -0.026637 0.010396 -0.104711 0.064814 -0.992388
-0.063084 0.044219 0.003996 -0.783762 -0.585612 -0.206821
-0.034707 -0.032691 -0.004083 -0.920588 -0.268925 -0.283190
-0.032681 -0.005258 0.000053 -0.983525 0.161944 -0.080324
-0.009255 0.005888 -0.010503 0.733936 0.386228 0.558719
-0.032661 -0.040290 0.004456 -0.877253 -0.409096 0.251134
-0.045719 0.039914 -0.001517 0.244597 -0.558665 0.792506
-0.068808 0.064137 0.012065 -0.902035 0.294150 0.315924
-0.011225 -0.039826 0.008626 -0.119451 0.074754 -0.990022
-0.033594 0.023210 -0.006448 0.212167 0.023480 0.976951
-0.010457 -0.020069 -0.012802 0.151854 -0.081259 -0.985057
0.044374 0.084725 -0.001289 0.664473 0.747196 -0.013140
-0.000061 -0.003990 0.015725 0.509012 -0.163794 0.845031
0.032788 0.039956 0.005729 -0.887817 0.396401 -0.233768
-0.021586 -0.054935 -0.007319 -0.658334 -0.746780 -0.094427
-0.017289 0.002928 -0.010835 -0.203490 0.071040 -0.976496
-0.045851 0.037754 0.005779 0.485938 0.379568 0.787269
-0.029456 0.020711 -0.000413 0.457900 0.751568 -0.474840
0.017545 0.021536 0.011320 0.119819 -0.035880 0.992147
-0.012147 -0.044745 0.011046 0.109571 -0.035674 0.993339
0.023995 -0.036789 0.005336 -0.118980 0.061257 -0.991005
0.037521 -0.042988 -0.010776 0.855629 -0.440833 -0.271230
0.034365 0.053595 -0.009588 -0.178747 0.903770 0.388907
-0.026617 -0.022556 -0.005404 0.727178 -0.551292 -0.409010
-0.042592 0.039827 0.012053 0.452874 -0.475785 -0.754012
-0.053021 0.032058 0.009550 -0.710769 -0.614063 0.343125
-0.015090 -0.039601 -0.010855 0.181935 -0.039498 0.982517
-0.015924 -0.032666 0.009697 0.024547 0.044011 -0.998729
0.036457 -0.005334 -0.008640 0.748596 0.463678 -0.473927
-0.002006 -0.012531 -0.018252 0.302535 -0.484993 -0.820521
-0.051359 0.032233 0.012222 -0.623481 -0.563524 0.541952
0.040969 -0.032881 -0.011103 0.930830 -0.110874 -0.348228
0.014772 -0.080616 -0.018769 0.388518 -0.549057 -0.739993
0.001400 -0.007272 -0.006410 0.457030 -0.872646 -0.172084
0.009448 0.010354 0.011550 -0.327427 -0.064621 0.942664
0.021414 -0.056394 0.004902 -0.147197 0.065862 -0.986912
0.037861 -0.008272 -0.009216 0.773768 0.479238 -0.414264
-0.062952 0.044572 0.010684 -0.742174 -0.618861 0.257271
-0.029851 -0.030556 0.012218 -0.449800 -0.043580 0.892065
0.038516 0.071322 -0.011986 -0.054719 0.037955 0.997780
-0.015777 -0.049471 -0.002203 0.424779 0.419065 -0.802463
0.030653 0.027255 0.006673 0.719476 -0.271153 0.639399
-0.003681 -0.065354 -0.015619 -0.128846 0.032402 -0.991135
-0.062476 0.064981 0.015628 0.482345 -0.390649 -0.784051
0.030089 0.053845 -0.011474 0.113864 0.511366 0.851786
0.029073 0.047095 -0.011541 -0.010119 0.009241 0.999906
-0.026430 0.010908 -0.003726 0.543928 0.487852 -0.682747
-0.014959 0.009142 -0.008665 0.253535 0.088497 0.963270
-0.041204 0.045641 0.015407 0.507625 0.591155 -0.626779
0.047760 0.064662 -0.000516 0.936555 -0.338187 0.092168
