0.011760 0.004541 0.038813 -0.276318 -0.003584 0.961060
0.018421 -0.008222 -0.054596 0.102523 0.022856 -0.994468
0.014028 -0.026364 -0.028285 0.156066 -0.986954 -0.039558
-0.026083 0.013926 -0.055869 0.486488 -0.203688 -0.849612
-0.011477 -0.020515 -0.056962 0.006105 -0.008715 -0.999943
0.002631 -0.028716 0.036750 0.013939 0.001677 0.999901
-0.024751 -0.021603 0.040704 -0.742258 -0.663508 -0.093863
-0.014409 0.031645 -0.024391 -0.447406 0.894328 0.002413
0.031371 -0.009073 0.024898 0.957186 -0.289270 0.010880
-0.000358 0.013796 0.036448 -0.165756 0.780520 0.602755
0.022757 -0.023676 -0.032413 0.631422 -0.774995 -0.026256
-0.016654 -0.025763 0.037079 0.355002 0.567659 0.742790
0.000124 0.031245 0.037214 0.015391 0.112847 0.993493
-0.033095 0.005490 -0.044947 -0.992119 0.125136 0.006387
-0.022404 0.026145 0.015837 -0.689372 0.723639 -0.033378
0.017045 0.016405 -0.055605 -0.440925 -0.417428 -0.794569
-0.027485 -0.018563 0.019816 -0.795974 -0.605161 0.014357
-0.001043 -0.030608 0.017246 -0.012375 -0.998375 -0.055632
0.021380 -0.008538 0.036957 -0.002840 -0.016789 0.999855
-0.010831 -0.029251 -0.056706 -0.284272 -0.934084 -0.216046
-0.026934 0.021068 -0.006238 -0.797884 0.602162 -0.027967
-0.031745 0.011200 0.002790 -0.962420 0.271457 -0.007684
-0.030621 0.012770 0.038717 0.924640 -0.336917 0.177559
-0.026953 0.020910 0.019189 -0.817411 0.575966 0.010146
0.005425 0.034505 -0.009821 0.203766 0.979006 -0.005112
0.008516 -0.022177 0.036871 0.152811 -0.127374 0.980013
-0.020431 0.010740 -0.055087 0.092831 -0.015070 -0.995568
-0.028199 -0.008994 -0.058427 0.668967 0.255877 -0.697861
0.032281 -0.003901 -0.029827 0.993537 -0.108626 -0.032947
0.032652 -0.000490 0.012983 0.999810 -0.017763 0.008048
0.023530 0.024142 -0.019150 0.730480 0.682927 -0.003044
0.026026 0.013837 -0.057374 -0.795388 -0.371530 -0.478877
0.009261 0.033283 -0.039203 0.305666 0.952121 -0.005845
-0.015733 -0.027401 0.037293 -0.478635 -0.877288 -0.035704
0.007905 0.013426 0.038842 0.343607 -0.189609 0.919773
-0.032902 0.005123 -0.017355 -0.991931 0.126392 0.009908
-0.007259 -0.020134 0.037151 0.043753 0.035272 0.998420
0.007447 -0.021962 -0.056784 0.062685 -0.032407 -0.997507
0.025564 -0.020731 -0.014202 0.739434 -0.672712 0.026397
0.029802 0.014377 -0.002104 0.942642 0.333530 -0.013582
0.012353 0.032304 -0.002548 0.441933 0.896422 -0.033506
0.015966 -0.016319 0.036995 0.037483 -0.036197 0.998641
0.032544 0.004433 0.028094 0.993943 0.109891 0.001269
0.023216 0.024554 -0.012526 0.720522 0.693357 0.010171
0.031604 -0.007591 -0.034231 0.971864 -0.235542 -0.000621
-0.033214 -0.004067 0.020118 -0.993369 -0.114885 0.004399
0.022582 -0.023059 0.001226 0.628904 -0.776441 0.040227
-0.019170 0.009107 0.037137 0.117352 -0.043736 0.992127
0.031904 0.007562 0.015112 0.979402 0.201617 -0.011079
-0.033214 -0.001690 0.010758 -0.999624 -0.026565 0.006800
-0.032916 -0.004448 -0.005769 -0.994970 -0.099514 -0.011494
-0.032223 0.010024 0.028995 -0.967873 0.250082 -0.026078
0.022013 -0.023121 0.021659 0.642549 -0.766095 0.015123
0.029092 0.016396 0.032853 0.882870 0.468978 -0.024512
-0.008245 -0.008692 0.036251 0.049418 0.237573 0.970112
-0.031253 0.012090 -0.056793 -0.940423 0.309355 -0.141084
0.032237 -0.005410 0.023356 0.984020 -0.178029 -0.003158
-0.021025 0.027465 0.033753 -0.629660 0.776868 0.001930
0.024914 0.022724 0.030975 0.751031 0.657464 -0.060765
0.026238 0.020228 -0.055750 0.816941 0.556260 -0.152257
-0.027080 0.020843 -0.001976 -0.829780 0.558084 0.002818
-0.014138 -0.028210 0.039371 -0.404237 -0.873855 -0.270130
-0.033136 -0.001417 -0.012129 -0.999561 -0.024849 0.016140
-0.020349 -0.025070 0.011995 -0.519082 -0.854410 0.023168
0.011473 0.032702 0.000976 0.412893 0.910777 0.001838
0.016933 0.029781 -0.002108 0.557495 0.830154 -0.006586
0.000115 -0.029309 -0.003761 -0.054482 -0.997510 -0.044784
0.011076 -0.028980 -0.052795 0.307833 -0.950426 -0.043918
0.013622 0.030830 -0.057703 0.429119 0.799496 -0.420314
-0.032863 -0.004398 -0.031802 -0.989024 -0.147736 -0.002453
-0.020454 -0.024581 0.030541 -0.559342 -0.828223 0.034398
0.019148 0.018200 -0.056612 0.261749 0.183150 -0.947599
0.032437 -0.000473 -0.014058 0.999866 -0.016332 0.000635
0.016933 0.029781 -0.002108 0.557495 0.830154 -0.006586
0.031880 0.007664 0.007042 0.967563 0.252576 -0.005283
-0.003929 -0.028386 -0.022343 0.104572 -0.991954 -0.071352
0.032416 0.004180 0.038808 -0.085597 0.885260 -0.457152
0.019951 -0.025270 -0.039263 0.478640 -0.877117 -0.039625
-0.008852 0.033845 -0.009224 -0.275234 0.961351 -0.007041
0.018175 0.028843 -0.023611 0.581961 0.813163 0.009323
-0.003338 -0.016778 -0.055798 0.006927 0.140641 -0.990036
0.032258 0.006567 0.028580 0.985919 0.167136 -0.005307
-0.030305 -0.014199 0.007597 -0.905830 -0.423502 0.010901
-0.020952 -0.024355 0.028758 -0.571074 -0.820361 0.029696
-0.016012 -0.027795 -0.025537 -0.313270 -0.944587 0.098071
-0.024114 0.023811 0.040849 0.717465 -0.612799 0.331243
0.024136 -0.021909 -0.039673 0.726108 -0.686167 -0.044065
-0.025929 0.022520 0.005208 -0.794228 0.607618 0.001514
-0.008218 -0.029672 -0.058422 -0.097045 -0.779453 -0.618899
-0.020498 -0.024927 0.016040 -0.535861 -0.843905 0.026029
0.017259 -0.026335 -0.006010 0.411041 -0.911405 -0.019622
0.009171 -0.029195 -0.048918 0.228701 -0.970369 0.077972
-0.014186 0.006437 -0.055264 -0.011290 0.004945 -0.999924
-0.007648 -0.016499 -0.055947 -0.038676 -0.089051 -0.995276
-0.014626 -0.027871 0.027286 -0.384657 -0.922827 -0.020711
-0.031646 0.011670 -0.030822 -0.954674 0.297472 0.010392
0.016379 -0.026442 -0.036214 0.153899 -0.983125 0.098895
-0.023332 0.025101 0.041454 0.690223 -0.582516 0.429264
0.027599 0.018716 0.006403 0.850652 0.525091 -0.025898
-0.024107 -0.022636 0.002185 -0.657575 -0.753075 0.021751
-0.015261 -0.001122 0.036365 0.224957 0.018897 0.974185
-0.022588 0.025469 -0.057289 -0.679595 0.730754 -0.064409
-0.032556 -0.004841 -0.054301 -0.970259 -0.213302 -0.114449
-0.033262 0.003774 -0.044461 -0.997496 0.069445 0.013345
0.031860 -0.007112 0.018237 0.970602 -0.237602 -0.038429
-0.026514 0.021626 -0.026817 -0.798905 0.601455 -0.001760
-0.031049 -0.011584 -0.020164 -0.944221 -0.329042 -0.013355
0.000840 0.006930 -0.055114 0.009720 -0.007663 -0.999923
-0.010060 -0.008299 -0.055223 -0.000245 -0.004673 -0.999989
0.028774 0.016578 0.003651 0.889719 0.456094 0.019478
-0.002082 -0.028367 -0.029580 0.172074 -0.984238 0.040814
-0.001385 -0.030206 0.011082 -0.053769 -0.996366 -0.066055
0.030908 -0.009531 -0.048552 0.941550 -0.336802 0.006995
-0.005199 0.034387 -0.049905 -0.174823 0.984588 -0.004881
-0.028107 -0.017793 -0.024582 -0.863766 -0.503161 -0.027169
0.030526 -0.011915 -0.000641 0.930860 -0.365316 0.006581
-0.032426 0.008531 0.014229 -0.979482 0.201399 -0.007258
0.025564 -0.020731 -0.014202 0.739434 -0.672712 0.026397
-0.030224 -0.013715 0.028033 -0.886199 -0.462728 0.023104
-0.016037 0.008277 0.036588 0.015260 0.001723 0.999882
0.003281 0.026497 -0.056819 0.068414 0.064487 -0.995571
0.029239 0.015904 0.009037 0.911771 0.407251 0.053102
0.030404 -0.007082 0.036999 -0.763143 0.163187 0.625286
0.029413 0.015791 0.037139 0.890795 0.449281 -0.068050
-0.008005 -0.030207 -0.052167 -0.188596 -0.981650 -0.028184
0.032603 0.008154 0.039854 0.909423 0.115258 -0.399582
0.002937 0.015030 0.036568 -0.147802 0.749027 0.645843
-0.006462 0.034424 0.001507 -0.204243 0.978920 0.000663
0.030560 -0.011030 -0.025176 0.950418 -0.310592 -0.015411
-0.026996 0.020993 -0.024614 -0.810863 0.585188 -0.007557
0.031248 -0.005505 0.041042 -0.832897 0.232192 0.502363
0.026119 0.020866 -0.028666 0.823973 0.566564 -0.008560
0.028649 -0.012444 0.039136 -0.883299 0.450694 0.129064
-0.000998 -0.015931 0.036441 -0.032009 0.053860 0.998035
-0.023016 -0.024037 -0.012249 -0.605047 -0.795839 -0.023630
-0.012843 -0.028822 -0.031789 -0.197840 -0.980229 0.003277
-0.028408 0.018455 0.010990 -0.862330 0.506104 -0.015694
-0.011599 -0.009363 -0.055211 0.030124 0.022842 -0.999285
0.032585 0.004254 0.025358 0.994799 0.101841 -0.001923
0.026330 0.021890 0.041956 0.312378 0.122039 0.942086
-0.031530 -0.010732 0.019906 -0.946181 -0.323358 -0.013494
0.010570 0.032982 0.036282 0.373186 0.927720 0.008262
-0.030306 0.015173 0.004738 -0.914202 0.404633 0.022535
0.023053 0.017988 -0.056353 -0.597384 -0.449039 -0.664451
0.001858 0.035283 -0.001001 0.064034 0.997855 -0.013612
0.032480 -0.003284 -0.039379 0.987518 -0.157119 -0.010990
-0.019276 0.028580 0.025791 -0.593967 0.804416 -0.010877
-0.005796 -0.011339 0.036570 0.032624 0.040396 0.998651
-0.033006 0.004402 -0.019381 -0.993746 0.110774 0.014091
-0.014910 -0.028288 -0.028115 -0.293641 -0.955763 0.017084
0.018107 -0.025976 0.012305 0.514983 -0.857185 -0.005199
0.025760 0.021439 -0.015420 0.809411 0.587029 0.015853
-0.014763 0.013856 0.036846 0.153105 -0.130036 0.979617
0.012101 -0.025105 -0.058631 -0.254250 0.584603 -0.770452
-0.024691 -0.019709 0.041675 0.786046 0.573280 0.231263
0.001297 -0.006012 0.037722 0.084381 0.788157 0.609662
0.005201 -0.018195 0.036945 -0.008748 0.058509 0.998249
0.026049 0.021000 -0.053408 0.824191 0.565242 -0.034790
-0.013261 0.032168 -0.021533 -0.409187 0.912425 0.006791
-0.015580 -0.026824 0.040422 0.442697 0.852399 0.278273
0.032279 -0.005019 -0.000696 0.988079 -0.153332 -0.013787
0.009553 -0.029268 0.013255 0.184559 -0.982615 -0.020137
-0.019122 0.013531 -0.055096 0.166201 -0.106456 -0.980329
-0.033110 -0.002569 -0.019458 -0.993680 -0.110914 0.017242
-0.032475 0.007568 -0.007479 -0.989104 0.145564 -0.022013
-0.020753 0.021055 -0.055690 0.220702 -0.201181 -0.954367
-0.008005 0.034098 -0.000260 -0.237216 0.971456 -0.001595
0.010479 0.030727 -0.059303 -0.012457 0.122942 -0.992336
-0.014699 0.031465 0.035381 -0.441743 0.897136 -0.003052
0.032605 -0.002280 -0.052919 0.992900 -0.116662 0.023246
-0.017522 -0.026817 0.005596 -0.406165 -0.913783 0.005486
-0.023250 0.004413 0.037239 0.074725 0.003792 0.997197
-0.022290 -0.022324 -0.058013 -0.665673 -0.652207 -0.362637
-0.028973 0.016897 0.039362 0.896495 -0.423256 0.130958
0.025377 0.010663 -0.055336 -0.015680 -0.104054 -0.994448
-0.029072 -0.015434 -0.047981 -0.881268 -0.472282 -0.017796
-0.021987 -0.023368 0.034153 -0.630257 -0.775545 0.036145
0.009142 -0.008108 0.036262 0.119487 -0.493349 0.861585
0.032785 -0.000832 0.015144 0.999929 -0.011870 0.001221
0.011815 -0.024124 -0.056308 -0.342970 0.705710 -0.619956
0.032115 0.005723 0.037807 0.239921 0.175521 0.954793
-0.017190 -0.025826 -0.058610 -0.393177 -0.626555 -0.672935
-0.018067 -0.026178 0.024031 -0.487162 -0.873272 0.008336
0.006935 0.034276 0.005933 0.241869 0.970301 0.003773
-0.029216 0.017012 0.008778 -0.861333 0.508038 -0.001719
-0.000850 -0.012062 0.037067 -0.174631 0.059045 0.982862
-0.032597 0.008930 -0.053240 -0.978297 0.204758 -0.031783
0.015140 -0.023795 -0.059001 -0.314492 0.448350 -0.836706
-0.032577 0.007139 -0.012378 -0.985927 0.167066 0.006021
-0.016689 0.013045 0.037131 0.111610 -0.066360 0.991534
-0.013571 -0.028161 -0.015053 -0.115427 -0.990580 0.073677
0.003131 -0.003052 0.035987 0.049798 -0.035092 0.998143
-0.006591 -0.005329 0.035881 -0.565146 -0.281699 0.775406
0.018009 0.009971 0.037281 -0.061798 0.078863 0.994968
-0.014219 -0.028065 0.030768 -0.380106 -0.924783 -0.017182
-0.024432 0.019431 -0.058482 0.570423 -0.414415 -0.709139
0.004927 -0.009282 0.037966 0.109025 -0.873580 0.474311
0.015808 -0.026540 -0.024853 0.214028 -0.974406 -0.068742
0.006503 0.002812 0.035967 -0.016378 0.005602 0.999850
-0.014219 -0.028065 0.030768 -0.380106 -0.924783 -0.017182
0.020991 0.009467 0.037332 0.115365 0.070599 0.990811
0.031243 -0.008560 -0.044595 0.951363 -0.306424 0.031820
0.014794 -0.027047 0.040306 -0.439090 0.852674 0.283104
-0.022622 0.025866 -0.055334 -0.662863 0.737308 -0.130348
0.010501 0.023816 0.036987 0.048890 0.070092 0.996342
-0.024116 -0.018664 -0.059132 -0.149344 -0.057349 -0.987121
0.002326 -0.011286 -0.055095 0.013755 0.001886 -0.999904
0.005399 0.027088 0.036677 -0.067257 0.121964 0.990253
0.021056 -0.023533 0.041874 -0.119860 -0.168358 0.978412
0.001286 -0.014871 0.036496 0.137017 -0.162787 0.977101
-0.009717 -0.028726 -0.058886 -0.220835 -0.532389 -0.817187
-0.027844 -0.007918 -0.056876 0.805539 0.307356 -0.506596
-0.009329 -0.029902 0.034635 -0.261745 -0.964815 -0.024938
-0.015630 -0.027475 0.034087 -0.446837 -0.894567 0.009317
0.017693 0.029173 -0.029133 0.573107 0.819232 0.020181
0.007018 0.034190 0.001138 0.247354 0.968876 0.009752
-0.032672 0.006173 0.006598 -0.991542 0.129443 -0.009435
-0.009947 -0.030776 0.040680 -0.247542 -0.967743 -0.046869
-0.013095 -0.028861 -0.045342 -0.290244 -0.956946 0.003501
-0.012472 0.032158 -0.055897 -0.364748 0.926277 -0.094712
0.019682 0.027689 -0.022676 0.625003 0.780608 0.004788
0.005266 0.018794 0.036388 -0.025159 -0.093155 0.995334
0.001150 0.034989 0.023786 0.057130 0.998267 0.014142
-0.027845 -0.017549 -0.045151 -0.844528 -0.535302 -0.014936
0.009455 -0.029370 0.015631 0.200544 -0.978872 -0.039892
-0.008185 0.001737 -0.055188 0.013523 -0.000793 -0.999908
0.003404 0.034836 0.027961 0.130059 0.991407 -0.014043
-0.013017 -0.028935 -0.047419 -0.309005 -0.951042 -0.005969
-0.001233 -0.028748 -0.009900 -0.066452 -0.993709 -0.090144
0.017869 0.005183 0.037179 -0.048494 -0.089154 0.994837
0.019914 -0.001553 0.038739 0.246569 -0.383990 0.889807
-0.017974 -0.005422 0.036881 0.277346 0.113413 0.954053
-0.028573 0.018163 0.006952 -0.878144 0.477596 0.027668
0.028738 0.013705 0.036660 -0.410260 -0.091719 0.907345
-0.032438 0.006976 -0.057430 -0.935715 0.160993 -0.313876
-0.020017 0.028089 0.007962 -0.634813 0.772599 -0.010196
0.019517 -0.005054 -0.054678 0.125754 -0.018068 -0.991897
-0.029437 0.015664 0.038885 0.908948 -0.382120 0.166727
0.007706 -0.027882 -0.036810 0.136077 -0.975133 0.174924
-0.007715 -0.029480 -0.038166 -0.094125 -0.994546 0.044928
-0.031664 0.009361 0.040740 0.944948 -0.264196 0.193062
0.002779 -0.013227 -0.055091 0.007086 0.014218 -0.999874
-0.022988 -0.023382 -0.042352 -0.668238 -0.743440 -0.027466
0.001995 0.034149 0.039046 0.356327 -0.932858 0.052985
0.030768 0.011348 -0.015847 0.955022 0.296225 -0.013560
0.027445 0.017105 -0.058702 0.616230 0.331185 -0.714546
-0.027365 0.019684 0.041904 0.552846 -0.452636 0.699630
-0.007019 -0.003802 0.037097 -0.892212 -0.260813 0.368692
0.021645 0.026225 0.036491 0.665292 0.746579 -0.002468
0.011065 0.032681 -0.035332 0.347927 0.937388 -0.015820
-0.032847 -0.005809 0.028308 -0.986064 -0.165944 0.011843
-0.031587 -0.009967 -0.021378 -0.955030 -0.296509 -0.000885
0.020402 -0.024912 -0.023255 0.445476 -0.894856 0.027992
0.009655 0.033475 -0.006862 0.315481 0.948187 -0.037600
-0.033276 0.003062 0.028408 -0.998394 0.056472 0.004548
0.027226 -0.017233 0.028478 0.811059 -0.584328 0.027279
-0.009089 0.033670 0.036559 -0.318105 0.947640 0.028063
0.022480 -0.023050 -0.047761 0.643315 -0.764296 -0.044692
0.009206 -0.026540 0.037194 0.007725 -0.089598 0.995948
0.026751 -0.014509 -0.058130 0.547331 -0.350990 -0.759760
0.020216 0.027301 -0.039212 0.640185 0.767554 -0.032000
-0.012756 0.032507 0.000973 -0.397116 0.917704 -0.010881
-0.005495 0.034648 0.014360 -0.176739 0.983774 -0.030863
-0.033229 -0.000697 0.017112 -0.998645 -0.030833 -0.041926
0.016129 0.030150 -0.007495 0.530818 0.847254 -0.019842
0.032701 -0.002600 0.018275 0.995642 -0.090742 -0.021513
-0.015957 0.031128 0.042427 -0.174096 0.157954 0.971978
-0.029956 0.016039 -0.001675 -0.912161 0.409537 0.015567
0.030636 -0.010268 -0.042842 0.937854 -0.347031 -0.000504
-0.009033 -0.005005 0.036025 -0.005819 -0.037069 0.999296
0.030178 0.014228 0.035667 0.943748 0.330573 0.007815
-0.019254 -0.025943 0.004904 -0.487430 -0.873046 0.014237
0.011391 -0.028475 -0.000810 0.251885 -0.967192 -0.033062
-0.012021 0.032453 -0.054058 -0.359446 0.931096 -0.062118
0.032312 -0.003920 -0.048352 0.983652 -0.179462 0.014889
0.029224 -0.014046 0.027206 0.881558 -0.471834 0.015093
-0.025773 -0.002736 0.036889 -0.173072 -0.019123 0.984724
-0.014647 -0.028136 -0.021226 -0.266748 -0.963752 -0.005331
0.015808 -0.026540 -0.024853 0.214028 -0.974406 -0.068742
-0.030284 0.011360 0.036505 0.370530 -0.121899 0.920787
-0.018697 -0.025921 0.017858 -0.476154 -0.879296 0.010766
0.032278 0.005041 0.038002 0.432836 0.422521 0.796322
0.030953 -0.006872 -0.057669 0.762136 -0.190114 -0.618875
-0.008909 -0.028385 -0.014635 -0.061749 -0.991223 0.116893
-0.032951 0.003977 0.003080 -0.993504 0.113467 -0.008643
0.007580 -0.006653 0.039141 -0.160698 0.141958 0.976741
0.000647 0.003715 -0.055095 0.008944 -0.004000 -0.999952
-0.014900 -0.011452 0.037123 0.127396 0.107035 0.986060
-0.020358 -0.024800 0.022382 -0.525440 -0.850760 0.010942
0.027386 0.018927 -0.054002 0.851489 0.520582 -0.062937
0.023492 -0.021625 -0.053673 0.692541 -0.703220 -0.160838
0.003199 0.034654 -0.049959 0.099640 0.994902 -0.015555
0.024645 0.004827 -0.056337 0.240136 -0.030890 -0.970248
-0.031239 0.012601 0.008759 -0.943040 0.332414 0.013283
0.011496 0.003288 0.037692 -0.969571 -0.238522 0.055129
0.000690 -0.030664 0.038696 -0.015778 0.974212 0.225084
-0.032863 0.005481 -0.055924 -0.984379 0.098960 -0.145621
-0.000440 -0.028734 0.036968 -0.086189 -0.223809 0.970815
0.012640 0.009159 -0.055024 0.023948 -0.004624 -0.999703
0.033117 0.006347 0.040355 0.972142 0.138554 -0.189057
-0.007701 0.033317 0.039435 0.257972 -0.949220 0.180088
-0.024804 0.023551 -0.013905 -0.725513 0.688206 -0.001681
-0.014802 -0.028041 -0.016919 -0.234841 -0.971960 0.011957
0.025308 -0.000431 -0.055864 0.358906 -0.070539 -0.930704
0.031585 -0.008214 0.015058 0.966811 -0.254959 0.016519
-0.028514 -0.016601 0.028700 -0.830607 -0.556164 0.027830
-0.012606 -0.003255 0.035865 0.048612 0.013226 0.998730
0.022570 0.025222 -0.002693 0.695302 0.718591 0.013506
-0.021112 -0.024483 -0.052959 -0.561415 -0.793557 -0.234693
0.032412 -0.004002 -0.002400 0.994415 -0.105464 -0.004001
-0.012494 0.032780 0.042397 -0.018505 0.416569 0.908916
-0.028061 -0.018042 0.008269 -0.817993 -0.575040 0.014674
0.029719 0.014585 0.001117 0.942340 0.334123 0.018895
-0.017763 0.009849 0.036923 0.180204 -0.115496 0.976825
-0.028639 0.018200 0.028519 -0.852839 0.521926 0.016071
-0.019103 0.028803 0.010035 -0.594628 0.803997 0.002553
0.016438 -0.026621 -0.011978 0.365879 -0.930628 -0.007954
-0.029687 -0.014696 -0.028355 -0.909635 -0.415346 -0.007200
-0.033211 -0.001277 -0.015808 -0.998782 -0.048912 0.006490
0.016256 0.017195 0.037783 -0.133747 0.839548 0.526564
-0.023212 -0.023958 -0.017153 -0.621727 -0.783222 0.004385
0.005684 -0.024925 0.036776 -0.017918 0.081085 0.996546
-0.023339 -0.023712 -0.026173 -0.676643 -0.736154 -0.015220
-0.020252 0.028031 0.036003 -0.602456 0.798077 0.010994
0.003572 -0.000382 -0.055053 0.011277 0.000246 -0.999936
0.008566 0.033577 -0.028688 0.271303 0.962494 0.000638
-0.024263 -0.012210 -0.055724 0.001201 0.010710 -0.999942
-0.014673 -0.015495 -0.055247 0.253021 0.265345 -0.930361
0.013128 -0.028068 0.004880 0.308852 -0.950539 -0.032943
0.032423 -0.002380 -0.007585 0.999138 -0.040667 -0.008370
-0.011815 0.032841 0.007248 -0.360511 0.932450 0.023851
-0.009967 0.011306 -0.055250 0.000903 0.000968 -0.999999
0.020422 -0.024657 -0.003711 0.529181 -0.848453 0.009743
-0.005012 0.034545 -0.038673 -0.148450 0.988877 -0.009166
-0.002073 0.035007 0.027989 -0.071000 0.997460 -0.005634
-0.018511 -0.026363 0.042416 -0.223472 -0.262400 0.938726
0.032429 -0.001282 -0.024968 0.999470 -0.032150 0.005103
0.022494 0.025103 -0.008013 0.693348 0.720010 -0.029233
0.030809 0.011966 0.021866 0.948347 0.316729 0.017905
-0.021570 -0.024972 -0.031644 -0.588038 -0.808549 -0.021427
0.031025 0.010960 0.003239 0.961067 0.274606 -0.030687
0.023582 -0.022378 -0.042017 0.702417 -0.710909 -0.034904
0.027290 0.018378 -0.056608 0.841192 0.508757 -0.183201
-0.004287 0.034935 0.015101 -0.120930 0.992656 -0.003048
-0.028457 0.018778 0.032456 -0.864786 0.501479 -0.025745
0.012994 0.026466 0.036884 -0.031641 -0.060160 0.997687
-0.011009 0.015043 -0.055213 0.109539 -0.131804 -0.985205
0.021502 -0.024579 -0.030120 0.500971 -0.865277 0.018002
0.023065 0.024626 0.029289 0.742974 0.669261 0.008896
-0.017870 0.029646 -0.001860 -0.553018 0.833154 -0.005064
0.022923 0.025017 0.035525 0.708877 0.705223 0.012392
-0.024928 -0.000844 0.037410 -0.254889 0.120111 0.959482
0.003199 0.034654 -0.049959 0.099640 0.994902 -0.015555
0.026099 -0.018211 0.036854 0.753182 -0.657683 0.013069
0.010247 -0.009326 0.036428 -0.005864 0.040214 0.999174
0.007854 0.016671 0.036431 0.056680 0.029480 0.997957
-0.010510 -0.022594 -0.056358 -0.144810 -0.297315 -0.943734
0.025974 0.021228 -0.005268 0.819478 0.572982 -0.012161
-0.031300 -0.011759 -0.001127 -0.943647 -0.330921 -0.004589
0.032439 0.005292 -0.033859 0.988456 0.149619 0.023860
0.032344 -0.002647 -0.025470 0.996994 -0.077187 0.006708
-0.003353 0.034282 -0.056371 -0.073258 0.989355 -0.125741
-0.015371 -0.028238 -0.037030 -0.316568 -0.948552 -0.005899
0.003182 -0.017273 0.036885 -0.009562 0.147137 0.989070
-0.015613 0.002758 0.036611 0.107325 -0.034228 0.993635
0.030000 0.013506 -0.045690 0.931181 0.364548 0.002783
-0.021914 -0.024817 -0.028633 -0.597844 -0.801316 -0.021781
-0.026953 0.020910 0.019189 -0.817411 0.575966 0.010146
0.007840 0.015651 0.036640 -0.187983 0.949820 0.250008
-0.003270 0.034911 0.039689 -0.148762 0.925619 -0.347994
-0.008042 -0.022224 0.037218 -0.054751 -0.105644 0.992896
0.006911 -0.018825 0.036913 0.005417 0.033164 0.999435
-0.024751 -0.021603 0.040704 -0.742258 -0.663508 -0.093863
0.004560 0.034075 -0.054086 0.177689 0.976652 -0.120740
-0.018020 -0.025928 -0.053860 -0.513393 -0.845329 -0.147808
0.002736 0.030124 -0.056343 -0.046690 -0.639505 -0.767368
0.022822 -0.011706 0.036724 -0.015987 -0.002691 0.999869
-0.026541 -0.020160 -0.025644 -0.804077 -0.593777 -0.029817
0.000380 0.025351 -0.056464 -0.053144 -0.566630 -0.822257
-0.013239 -0.026539 0.036772 0.140961 0.347158 0.927152
0.032200 -0.005626 0.011365 0.987361 -0.156122 0.027294
-0.027740 0.000901 -0.055744 -0.045409 -0.000088 -0.998968
-0.032481 -0.006010 0.038677 -0.966637 -0.231649 -0.109326
0.001024 0.034170 0.039262 -0.487184 -0.663203 -0.568166
-0.007320 -0.030328 0.033704 -0.210473 -0.977258 -0.025867
0.007974 0.033626 -0.031755 0.257461 0.966265 -0.006846
-0.033251 0.001194 -0.032177 -0.999999 0.001096 0.000461
-0.011009 0.015043 -0.055213 0.109539 -0.131804 -0.985205
-0.016747 -0.005735 0.036470 0.097494 0.059417 0.993461
-0.018321 0.029530 0.020227 -0.545736 0.837413 -0.030187
0.018742 0.028315 -0.009282 0.593537 0.804587 -0.018816
-0.022410 0.005686 0.037183 0.060353 -0.013033 0.998092
-0.018603 0.009684 -0.055995 -0.123165 0.030682 -0.991912
-0.001726 -0.030361 -0.045289 0.010337 -0.997165 0.074528
0.015739 0.000827 -0.054865 -0.084918 0.012499 -0.996310
0.003947 0.010410 0.036452 -0.061933 -0.205673 0.976659
0.012262 0.031840 -0.055606 0.401041 0.908386 -0.118325
0.023076 -0.015293 -0.058184 -0.669370 0.487330 -0.560761
-0.031771 0.011594 0.030207 -0.952820 0.303385 -0.009565
0.027743 0.018834 0.032080 0.849306 0.527856 -0.006870
0.024998 0.022533 -0.002049 0.769859 0.638198 0.004371
0.032675 -0.002050 0.010530 0.994709 -0.102314 0.009263
-0.033185 -0.001646 0.005390 -0.999353 -0.035319 -0.006842
0.012583 0.021190 0.036954 -0.001821 -0.005534 0.999983
-0.013760 -0.006568 0.036590 0.118376 0.092993 0.988605
0.003021 0.035027 0.009500 0.106249 0.994238 0.014177
0.028499 -0.016189 -0.001936 0.866475 -0.498901 0.017868
-0.024555 -0.021521 0.025569 -0.695872 -0.715933 0.056579
-0.001410 -0.010314 0.036633 -0.076082 -0.432361 0.898485
-0.004502 0.034419 -0.051782 -0.139617 0.989125 -0.046251
-0.016338 -0.002722 0.036622 0.072319 0.032694 0.996846
-0.002635 0.008781 0.035937 0.433113 -0.437728 0.787913
-0.002682 0.034653 -0.046056 -0.062729 0.997940 0.013414
0.009526 -0.028736 -0.002941 0.122790 -0.992431 0.001945
-0.027343 0.009688 -0.055692 0.280933 -0.082675 -0.956160
0.032165 0.005017 -0.016787 0.990441 0.137808 0.005985
0.032676 -0.000986 -0.054644 0.995382 -0.062907 -0.072511
0.029969 -0.012929 0.012604 0.908415 -0.417839 0.013882
-0.018754 0.029050 -0.022046 -0.568923 0.822341 0.009058
0.017775 0.025113 0.037058 0.121549 0.166313 0.978553
-0.027703 0.019695 0.011106 -0.864351 0.502313 -0.024066
0.007661 0.033696 -0.049616 0.240477 0.970373 -0.023406
-0.013042 0.015669 -0.055934 0.095932 -0.148886 -0.984190
0.001020 0.014773 0.037373 -0.245084 0.956830 -0.156238
-0.033400 0.001743 -0.050445 -0.999676 0.022578 0.011789
-0.000530 -0.029036 -0.035894 0.140010 -0.979571 0.144351
0.027114 -0.016889 0.037267 0.794795 -0.603350 -0.065343
-0.032444 -0.006692 -0.028152 -0.977179 -0.212343 -0.005650
-0.012540 -0.004715 -0.055234 -0.001313 -0.004070 -0.999991
-0.021179 -0.009354 0.037326 0.000546 0.011435 0.999934
-0.004334 0.005898 -0.055159 0.010325 -0.006333 -0.999927
-0.014121 0.031725 0.024841 -0.458464 0.888701 -0.004614
-0.024526 -0.014864 -0.057314 0.678473 0.457872 -0.574481
-0.024972 -0.022250 -0.018423 -0.735128 -0.677851 -0.010241
0.003464 -0.031354 0.039190 0.095010 -0.993623 -0.060719
0.001236 0.008582 -0.055116 0.010022 -0.009528 -0.999904
-0.003756 -0.001095 0.036219 0.549308 0.277158 0.788317
0.029991 -0.011707 0.037731 0.872679 -0.488128 0.012724
0.019935 0.027573 -0.034462 0.686036 0.726546 0.038527
-0.019792 -0.025488 0.009944 -0.512739 -0.858140 0.026367
0.030178 0.014228 0.035667 0.943748 0.330573 0.007815
-0.006133 0.034637 0.015745 -0.210411 0.977455 0.017552
-0.006198 0.034610 0.006264 -0.213440 0.976956 0.000334
-0.007320 -0.030328 0.033704 -0.210473 -0.977258 -0.025867
0.001493 -0.027613 -0.027539 0.136386 -0.990599 0.010588
0.029201 0.016095 0.001437 0.905163 0.423790 0.032891
-0.002685 0.034856 -0.029259 -0.059588 0.998102 -0.015526
0.018254 -0.003256 0.037231 0.344173 -0.558928 0.754417
-0.009949 0.033484 0.021923 -0.321601 0.946858 0.005652
-0.015305 0.031282 -0.034917 -0.463352 0.885252 -0.040431
-0.024058 -0.021463 0.034672 -0.702138 -0.710292 0.049880
-0.032583 -0.007102 0.029289 -0.977732 -0.209609 0.010204
0.009845 0.013607 0.037820 0.254024 -0.395889 0.882465
-0.031240 -0.007433 0.039023 0.950039 0.280893 0.136108
0.031499 -0.007760 -0.029950 0.967483 -0.252902 0.004170
0.007161 -0.029077 -0.043944 0.183823 -0.976343 0.113858
0.032434 0.001082 -0.009227 0.999310 0.036785 0.005048
0.031933 -0.005667 -0.030773 0.984210 -0.176740 -0.009638
0.000473 0.000715 0.036132 0.010116 0.014915 0.999838
0.004492 0.031266 0.037069 -0.024057 0.332895 0.942657
0.020098 0.027257 -0.051887 0.641928 0.766765 -0.000178
-0.032789 -0.005876 0.013106 -0.985315 -0.170650 0.005675
0.023125 0.024660 0.023766 0.726257 0.687365 0.008950
0.021032 0.026970 0.018444 0.676641 0.736313 -0.000157
0.023076 -0.015293 -0.058184 -0.669370 0.487330 -0.560761
0.013622 0.030830 -0.057703 0.429119 0.799496 -0.420314
0.004089 0.017238 -0.055155 -0.014261 -0.084329 -0.996336
-0.008479 -0.018043 0.037095 0.025347 0.019879 0.999481
-0.022367 0.004869 -0.055132 0.236145 -0.060286 -0.969846
0.001754 0.034488 0.038550 0.018521 0.997027 0.074794
-0.018070 -0.021078 -0.056509 0.468970 0.616267 -0.632679
0.010772 -0.028388 -0.044197 0.221798 -0.971694 0.081345
-0.028030 -0.017569 -0.034880 -0.846344 -0.532431 -0.014771
0.003406 0.019846 0.036508 -0.033693 -0.122807 0.991858
-0.018877 -0.024688 -0.058653 -0.399002 -0.615249 -0.679901
-0.028035 0.019514 -0.055626 -0.839145 0.532656 -0.110058
0.025392 -0.020300 0.007589 0.744677 -0.667115 0.020356
-0.019320 0.028713 -0.046242 -0.592192 0.805675 0.014018
-0.014557 0.003801 0.036520 0.155767 -0.080691 0.984493
0.001220 0.034986 0.026015 0.059667 0.997019 -0.048909
-0.032589 0.006245 -0.004201 -0.991152 0.131509 -0.017966
-0.033284 0.004511 0.037558 -0.954320 0.130195 0.268930
0.017692 -0.001418 -0.055393 -0.022762 0.001525 -0.999740
-0.010669 -0.011909 -0.055187 0.099187 0.135060 -0.985860
-0.008218 -0.029672 -0.058422 -0.097045 -0.779453 -0.618899
0.031622 0.009577 0.036635 0.970483 0.239099 0.031541
-0.017353 0.030509 0.042193 -0.209994 0.379224 0.901161
-0.014277 0.031802 0.001063 -0.455455 0.890253 -0.003191
-0.032907 0.007053 -0.051184 -0.986545 0.163476 0.002178
-0.028960 0.017969 -0.033818 -0.870170 0.492736 0.003761
-0.022764 -0.024297 -0.022019 -0.610684 -0.791856 -0.005364
-0.026357 0.021001 -0.058360 -0.634224 0.467340 -0.615916
-0.002494 -0.032094 0.040846 -0.133209 -0.972865 0.189182
-0.023338 -0.023189 -0.039200 -0.683967 -0.729015 -0.026939
0.028105 -0.015763 0.032854 0.826406 -0.561034 0.047892
-0.006961 0.028505 0.036898 0.042367 -0.136550 0.989727
-0.003240 -0.007810 0.037951 -0.162106 -0.248075 0.955081
0.032688 0.002528 0.013403 0.997791 0.065653 0.010094
0.007404 0.026186 -0.056708 0.111384 0.351115 -0.929684
-0.011500 -0.028725 -0.058041 -0.244683 -0.818464 -0.519853
-0.029647 -0.015594 -0.002808 -0.888262 -0.459336 0.000218
0.027743 0.018834 0.032080 0.849306 0.527856 -0.006870
-0.021210 0.018159 0.036791 -0.024331 0.030548 0.999237
-0.013357 -0.027530 -0.058864 -0.202726 -0.501176 -0.841264
0.020576 -0.020046 0.036879 0.015968 0.011423 0.999807
-0.024164 -0.022131 0.016082 -0.661424 -0.749582 0.025413
0.031196 0.010801 0.034896 0.954662 0.297656 0.004613
0.025043 -0.013378 -0.058948 -0.364663 0.258521 -0.894532
-0.017692 -0.026769 0.001037 -0.404933 -0.914279 0.011109
-0.001819 0.035035 0.025368 -0.028812 0.998653 -0.043141
-0.012846 0.002744 0.035868 0.099281 -0.004567 0.995049
-0.025730 0.022613 0.029600 -0.772489 0.635009 0.004934
-0.003484 -0.029218 -0.034203 0.121537 -0.980800 0.152512
0.017112 0.029642 0.000342 0.570319 0.821404 0.005674
-0.021467 -0.008460 -0.056137 0.456847 0.226910 -0.860118
-0.032570 0.008870 -0.050615 -0.976168 0.216817 0.009338
-0.010396 0.032998 -0.054271 -0.285649 0.955065 -0.079086
0.001109 0.035426 0.040125 -0.002498 0.948363 -0.317177
-0.019777 0.021823 0.036968 0.098817 -0.079591 0.991918
-0.020945 0.016539 -0.056891 -0.139930 0.098813 -0.985219
0.011657 0.032524 -0.015517 0.392671 0.919672 -0.003603
0.021502 -0.024579 -0.030120 0.500971 -0.865277 0.018002
0.013439 -0.008251 -0.054916 -0.117602 0.099488 -0.988065
0.019963 -0.024696 0.018254 0.548105 -0.834944 -0.049482
0.003343 -0.029998 0.004673 0.077084 -0.991620 -0.103671
0.018938 0.028719 -0.035614 0.559885 0.828501 0.010700
0.028774 0.016578 0.003651 0.889719 0.456094 0.019478
-0.033291 0.001896 0.034332 -0.999039 0.043655 0.003913
-0.000338 -0.029688 -0.040438 0.091279 -0.986645 0.134909
0.010731 0.006896 0.038788 -0.429798 -0.260148 0.864637
0.000567 -0.027865 -0.029765 0.167879 -0.984837 0.043739
-0.011329 0.033076 0.013267 -0.338675 0.940682 -0.020411
0.016574 -0.023405 0.036928 0.076211 -0.037806 0.996375
0.032492 -0.002983 0.002863 0.998522 -0.050378 -0.020416
-0.031788 -0.010209 -0.000504 -0.959720 -0.280671 -0.012724
0.032146 0.005376 -0.019980 0.989786 0.142554 0.001028
-0.020753 0.021055 -0.055690 0.220702 -0.201181 -0.954367
-0.025309 -0.021066 0.014434 -0.704963 -0.708804 0.024986
0.028300 -0.012889 -0.057595 0.714948 -0.439368 -0.543879
0.016041 -0.027854 0.039998 0.374920 -0.919984 -0.114301
0.006465 -0.030471 0.030816 0.386003 -0.918785 -0.082681
-0.033356 0.001116 0.019926 -0.999991 -0.003914 -0.001719
-0.025600 -0.020585 0.023113 -0.723278 -0.689950 0.028928
-0.023502 0.025004 0.006631 -0.679277 0.733411 0.026279
0.026451 -0.019171 -0.035973 0.831689 -0.554958 -0.017741
0.009469 -0.024837 0.036907 -0.050798 0.148906 0.987546
-0.032676 0.000955 0.038909 0.982144 -0.020189 0.187045
-0.010137 -0.024561 -0.055683 0.094980 0.251516 -0.963181
0.004634 0.034740 0.014163 0.167196 0.985924 0.000242
0.023706 -0.022156 -0.002720 0.700600 -0.713375 0.015962
-0.017082 -0.017481 -0.056885 -0.121333 -0.165273 -0.978756
-0.027550 0.006214 -0.055630 0.003917 -0.003820 -0.999985
-0.028600 0.018466 -0.010020 -0.868038 0.496453 0.006743
-0.021177 0.026529 -0.058497 -0.436725 0.600885 -0.669484
0.008277 0.033526 -0.042922 0.270392 0.962750 -0.000746
0.031237 0.009917 0.038403 0.619241 -0.134036 -0.773676
0.021265 0.026330 -0.023021 0.669258 0.743016 0.004684
-0.010045 0.030986 -0.059076 -0.015739 -0.096491 -0.995209
-0.006923 -0.010141 0.036609 0.042433 0.128082 0.990855
0.023233 0.024481 -0.033550 0.741136 0.671339 0.004533
-0.020104 -0.007597 -0.055111 0.064047 0.028939 -0.997527
-0.027601 -0.018680 -0.023618 -0.842091 -0.538782 -0.024412
-0.020802 0.027488 0.018674 -0.627905 0.777640 0.031796
0.017828 -0.015698 0.036884 0.103250 -0.073070 0.991968
0.019531 0.027722 0.002354 0.612232 0.790395 -0.021178
0.013125 -0.010435 0.036353 -0.126288 0.113365 0.985495
0.032584 0.003163 -0.055238 0.991263 0.071924 -0.110563
0.027061 0.008765 -0.055663 -0.631750 -0.162102 -0.758034
0.022451 0.007769 -0.056147 -0.413630 -0.127767 -0.901436
0.027988 0.020295 0.040619 0.818393 0.572198 0.053122
0.012726 -0.028314 -0.053253 0.396658 -0.911836 -0.105912
-0.003747 -0.030913 0.029598 -0.152004 -0.987806 -0.033668
0.000279 0.034945 -0.034315 -0.003826 0.999940 -0.010294
0.025067 0.017061 -0.058880 -0.458793 -0.341019 -0.820497
0.009941 0.033248 0.018011 0.334738 0.941235 0.045030
-0.019922 0.028249 -0.042127 -0.598106 0.801396 0.005742
0.023031 0.012191 0.036850 -0.257065 -0.152641 0.954263
-0.014910 -0.028288 -0.028115 -0.293641 -0.955763 0.017084
-0.032916 -0.004448 -0.005769 -0.994970 -0.099514 -0.011494
-0.008743 0.022360 0.037007 0.031183 -0.045342 0.998485
-0.022589 0.026172 -0.053281 -0.667433 0.743216 -0.046505
-0.008370 -0.019930 -0.055902 0.205010 0.464724 -0.861396
-0.031669 -0.009535 -0.035137 -0.957787 -0.287478 -0.001201
-0.030298 0.015442 -0.045521 -0.912777 0.408443 0.003440
0.031243 -0.008560 -0.044595 0.951363 -0.306424 0.031820
-0.033161 -0.001866 0.001255 -0.999005 -0.042830 -0.012411
0.000180 -0.019134 0.036950 0.016976 0.014622 0.999749
0.031028 -0.010124 0.021469 0.942243 -0.334642 0.013886
0.019725 -0.025077 -0.008275 0.495259 -0.868661 0.012087
-0.023531 -0.023376 -0.004080 -0.623886 -0.780789 0.033696
0.032229 0.006582 0.037061 0.978882 0.119540 0.165830
-0.008005 -0.030207 -0.052167 -0.188596 -0.981650 -0.028184
-0.003484 -0.029218 -0.034203 0.121537 -0.980800 0.152512
-0.031254 -0.010885 -0.027854 -0.945678 -0.324776 -0.014613
-0.033489 -0.001411 0.042322 -0.111821 0.005298 0.993714
0.017059 -0.026287 -0.017078 0.357903 -0.933682 -0.011979
-0.030805 -0.012906 0.013165 -0.925048 -0.379685 0.011160
0.016663 0.029194 0.040110 -0.537697 -0.819124 0.199796
0.002971 0.035034 -0.002130 0.159030 0.987114 -0.017742
-0.024080 -0.014843 0.037233 0.036029 0.049737 0.998112
-0.007860 0.033916 -0.042629 -0.231392 0.972745 -0.014993
-0.014399 -0.027919 -0.007492 -0.292684 -0.956205 -0.002866
-0.003194 -0.030559 -0.057709 -0.063647 -0.920395 -0.385775
-0.026706 -0.019313 0.041667 -0.728426 -0.559109 0.395971
0.032760 0.002101 0.036162 0.998045 0.041171 0.047019
0.032464 -0.000176 -0.023103 0.999933 -0.006430 -0.009610
-0.033173 -0.002782 0.012861 -0.998248 -0.058786 -0.006734
-0.026357 0.021001 -0.058360 -0.634224 0.467340 -0.615916
-0.021112 -0.024483 -0.052959 -0.561415 -0.793557 -0.234693
0.017003 0.014607 -0.054846 -0.090649 -0.047716 -0.994739
-0.015897 0.031133 -0.033411 -0.496801 0.867824 -0.008411
-0.030284 0.011360 0.036505 0.370530 -0.121899 0.920787
0.020607 0.025483 -0.058901 0.397531 0.584805 -0.707087
-0.021017 -0.025488 -0.026334 -0.553591 -0.832607 -0.017378
-0.011195 -0.029080 0.025988 -0.308199 -0.951144 -0.018420
-0.017864 0.029610 -0.013128 -0.548938 0.835860 0.002379
0.010552 -0.007179 0.038271 0.489927 -0.785642 0.377807
0.019375 0.028170 0.013882 0.587840 0.808940 -0.007716
0.012091 -0.006751 -0.054924 0.009272 -0.002062 -0.999955
-0.008064 0.019148 -0.055969 0.015025 -0.047403 -0.998763
-0.022292 -0.005905 -0.055934 0.523155 0.174656 -0.834149
0.014932 -0.027514 0.014609 0.398658 -0.917097 -0.002334
-0.019808 0.006759 -0.055885 -0.203991 0.037512 -0.978254
0.030669 -0.010957 0.028155 0.925646 -0.378364 0.004575
-0.000771 0.006242 0.036107 0.003441 0.030822 0.999519
0.012878 0.028075 -0.058250 -0.344739 -0.705277 -0.619467
0.032333 0.004981 0.036103 0.991472 0.124551 0.038336
-0.026892 -0.019113 0.022556 -0.779692 -0.624665 0.043296
-0.024484 -0.020863 0.036211 -0.704277 -0.707908 0.053480
-0.012378 0.032574 -0.026794 -0.378225 0.925660 -0.009950
0.022070 0.025612 -0.024302 0.697626 0.716442 0.005344
0.008152 0.033989 0.010497 0.276621 0.960966 -0.005065
-0.033470 -0.001088 0.039635 -0.943051 -0.086390 -0.321234
0.024914 -0.019310 0.035254 0.712239 -0.698546 0.068916
0.007643 -0.027158 -0.026738 0.000234 -0.992469 -0.122499
0.022975 0.025055 0.042135 -0.232503 -0.007419 0.972567
0.008412 -0.028646 -0.042124 0.170920 -0.977174 0.126166
-0.012624 0.032416 0.036499 -0.347386 0.937702 -0.006183
0.013778 -0.027516 -0.054581 0.421859 -0.899058 -0.117172
-0.008631 -0.005149 -0.055211 0.014384 0.005297 -0.999883
0.032429 -0.001282 -0.024968 0.999470 -0.032150 0.005103
0.002673 0.034803 -0.021079 0.107390 0.994040 -0.018742
-0.019947 -0.026183 -0.024294 -0.472920 -0.881045 0.010327
0.018387 0.020613 0.036743 -0.016906 -0.036851 0.999178
-0.002714 0.021861 -0.055743 -0.038299 0.144649 -0.988742
0.016998 0.029559 -0.049372 0.544854 0.838520 0.004396
0.026638 -0.019066 -0.003759 0.784324 -0.619813 0.025846
0.004016 0.034181 0.038988 0.084089 0.978877 -0.186355
0.032635 -0.002795 0.015818 0.992853 -0.119269 -0.004267
-0.022721 -0.023620 0.005595 -0.602849 -0.797556 0.021861
-0.032339 0.008984 -0.028881 -0.974602 0.223286 0.017162
-0.008790 0.033827 -0.014073 -0.270617 0.962683 -0.002910
0.021066 0.011117 -0.056176 -0.380389 -0.216730 -0.899073
0.015607 -0.027049 -0.005059 0.355309 -0.934534 -0.020033
0.032701 0.002713 0.026884 0.998417 0.056241 0.001096
-0.031181 0.013567 -0.051516 -0.931084 0.364565 0.013226
-0.011445 -0.028744 -0.020548 -0.123825 -0.992028 0.023406
-0.032544 0.008092 0.023507 -0.975258 0.220728 -0.012291
0.030431 0.011704 0.038538 -0.922888 -0.344541 0.171957
0.031623 0.008171 -0.023144 0.975944 0.217957 -0.005211
0.029067 0.016367 0.017131 0.892802 0.450438 -0.003053
-0.032669 0.006594 0.009860 -0.988218 0.151045 -0.024721
0.026099 -0.018211 0.036854 0.753182 -0.657683 0.013069
0.023624 -0.000761 0.036616 0.201416 -0.397828 0.895078
0.000428 0.034078 0.040813 0.016537 -0.985282 0.170135
0.020444 0.027044 -0.016761 0.634022 0.773314 0.001398
-0.018945 -0.025538 0.031223 -0.530797 -0.847151 0.024259
0.009397 -0.029783 0.030794 0.187055 -0.982167 -0.018913
0.019167 -0.025415 0.000076 0.492659 -0.870164 0.010092
-0.028256 -0.018036 -0.003286 -0.840529 -0.541754 0.003730
-0.031351 -0.006771 0.038565 0.932735 0.289350 0.215132
0.023065 0.024626 0.029289 0.742974 0.669261 0.008896
0.022870 0.025022 0.038068 0.696789 0.701726 -0.148546
0.007965 -0.008651 0.036403 0.367738 -0.555905 0.745479
-0.014763 0.013856 0.036846 0.153105 -0.130036 0.979617
-0.005212 -0.029898 0.013093 -0.136661 -0.988881 -0.058638
-0.009269 -0.028783 -0.009054 -0.059577 -0.997890 -0.025811
-0.009076 0.033736 0.023104 -0.282706 0.959073 0.016007
0.030148 0.012770 0.041304 -0.740817 -0.221341 0.634192
-0.033117 0.001163 -0.011763 -0.999898 0.004736 0.013466
-0.023770 0.024883 0.030667 -0.727779 0.685801 -0.003727
0.009118 0.033337 -0.032720 0.274442 0.961428 -0.018350
-0.017974 -0.005422 0.036881 0.277346 0.113413 0.954053
0.032023 0.005860 -0.005579 0.987250 0.158840 -0.010340
0.013008 -0.017235 -0.055946 -0.264382 0.434817 -0.860835
-0.026471 0.021622 0.000425 -0.805723 0.592292 0.001014
0.026119 0.020866 -0.028666 0.823973 0.566564 -0.008560
0.008770 0.018415 -0.055858 -0.028046 -0.063459 -0.997590
-0.009492 -0.029831 -0.051109 -0.239007 -0.970810 -0.020071
-0.011765 0.005894 0.036192 0.129543 -0.136452 0.982140
-0.013720 -0.008989 0.036493 0.039409 0.042300 0.998327
0.029591 -0.012944 -0.045119 0.922664 -0.385436 -0.011409
-0.011205 -0.025660 0.037209 -0.061486 -0.022144 0.997862
0.032324 0.004902 0.002365 0.990158 0.138414 -0.020722
-0.019255 0.021191 -0.055866 -0.155167 0.126224 -0.979791
0.016067 0.030424 0.012129 0.514908 0.856529 -0.035047
0.015111 -0.027500 0.025755 0.439276 -0.898318 -0.007785
0.018573 -0.025574 0.024806 0.541855 -0.840443 0.006943
0.031244 0.010201 0.010686 0.961403 0.274882 -0.011980
-0.007860 0.033916 -0.042629 -0.231392 0.972745 -0.014993
-0.007443 0.025842 -0.056945 -0.053215 0.109797 -0.992529
0.019253 0.006401 0.037313 -0.000574 -0.060107 0.998192
-0.015022 -0.027719 0.014819 -0.372275 -0.927469 0.034813
0.032450 0.000331 -0.017044 0.999983 -0.001358 0.005725
0.032333 0.002990 -0.010080 0.997082 0.076123 0.005715
0.011391 -0.028475 -0.000810 0.251885 -0.967192 -0.033062
-0.000320 -0.030781 -0.054811 0.030606 -0.998469 -0.046084
0.022651 -0.023158 -0.001540 0.637311 -0.770573 0.007156
0.024643 -0.021187 -0.001314 0.716839 -0.697052 0.016120
0.026372 0.020440 -0.042232 0.832358 0.554180 -0.008057
-0.027434 -0.017445 0.037750 -0.786524 -0.608694 0.104261
0.011022 0.032635 -0.048626 0.356178 0.934373 0.009164
-0.009789 0.018778 -0.055992 -0.007692 0.016540 -0.999834
0.019336 0.016186 -0.056788 -0.061796 -0.102122 -0.992851
0.032311 0.005013 -0.046945 0.995130 0.097399 -0.015157
0.002316 0.034977 -0.009739 0.103307 0.994595 -0.010451
-0.002238 0.031653 0.037169 0.007231 0.112774 0.993594
-0.017734 -0.022242 -0.058156 0.512905 0.600930 -0.613035
0.032560 0.004382 0.030660 0.994498 0.104710 0.003052
-0.021466 0.026845 0.038822 -0.678612 0.734218 -0.020245
-0.008064 0.019148 -0.055969 0.015025 -0.047403 -0.998763
0.020582 0.021808 0.036922 0.047726 -0.014204 0.998759
-0.019840 -0.001464 -0.055975 -0.098019 -0.041537 -0.994317
0.024120 -0.002102 -0.056329 0.104728 0.005248 -0.994487
-0.032507 0.007537 -0.002227 -0.988931 0.148135 -0.008417
-0.014121 0.031725 0.024841 -0.458464 0.888701 -0.004614
-0.032201 0.009779 -0.031740 -0.968523 0.248509 0.014342
0.000632 0.017879 0.036500 0.008415 0.019787 0.999769
-0.022634 -0.023362 0.020736 -0.602381 -0.797589 0.031455
0.011429 -0.028683 0.009228 0.249176 -0.968458 -0.000063
0.032661 0.003067 0.028859 0.997499 0.070605 -0.003163
-0.031873 -0.010031 0.001956 -0.959181 -0.282791 -0.000043
0.010362 0.033088 0.037540 0.360051 0.929846 0.075828
-0.023675 -0.000977 -0.056215 0.544635 0.092138 -0.833597
-0.013864 -0.028075 0.025490 -0.346699 -0.937854 -0.015158
-0.018584 -0.008471 -0.055506 -0.329509 -0.155232 -0.931304
0.008179 0.033799 -0.014744 0.293756 0.955863 -0.005804
0.017590 -0.026166 -0.007801 0.415369 -0.909631 -0.006292
-0.002224 -0.030783 0.041461 -0.062921 0.669032 0.740565
0.001693 0.034945 0.010951 0.020561 0.999679 -0.014804
-0.013442 0.027988 -0.057068 0.393562 -0.713815 -0.579290
0.011239 0.032581 -0.051230 0.363507 0.931110 -0.029954
-0.004660 0.033838 0.041169 0.121422 -0.930391 0.345874
0.017730 0.029132 -0.021170 0.565863 0.824449 0.009057
0.033013 -0.000045 0.039127 0.871931 0.044102 -0.487638
-0.027553 0.002223 0.036916 0.076375 0.016289 0.996946
0.020192 0.027334 0.006473 0.643884 0.765002 -0.013591
0.004503 -0.022580 -0.056843 0.016249 -0.000950 -0.999868
-0.028759 -0.017068 0.005709 -0.843997 -0.535823 0.023722
0.028474 -0.015776 0.016891 0.875969 -0.480842 0.038339
-0.010798 -0.017858 -0.055170 0.091079 0.249936 -0.963969
0.029372 0.015335 -0.006181 0.914940 0.403360 -0.013640
0.016903 -0.026538 -0.047700 0.415260 -0.909603 -0.013450
-0.029232 0.017285 0.018947 -0.871125 0.491048 0.003535
0.008534 0.002653 0.036195 -0.193583 -0.003178 0.981079
0.017167 -0.026186 -0.022621 0.306234 -0.951864 0.013215
0.019531 -0.007159 0.036838 -0.022597 -0.004187 0.999736
-0.005475 -0.030684 0.032198 -0.187287 -0.982079 -0.021077
0.005539 -0.029417 0.000541 0.093145 -0.992116 -0.083846
-0.015187 0.031196 -0.045283 -0.466329 0.884510 0.013421
-0.030461 0.015262 -0.051389 -0.909645 0.415377 0.002801
-0.004065 0.003155 0.036171 0.207734 -0.016290 0.978050
-0.002372 -0.022773 0.037322 0.008400 -0.136746 0.990570
-0.033298 0.002901 -0.040925 -0.999344 0.034973 0.009389
0.008485 0.015912 0.036638 -0.304922 0.813545 0.495144
-0.016702 0.030407 -0.004569 -0.521716 0.852982 0.015282
0.010715 0.032996 0.010610 0.351807 0.935994 -0.012108
0.026627 -0.019277 -0.008700 0.783923 -0.619894 0.034581
-0.024650 0.001430 -0.056814 0.378709 -0.041370 -0.924591
0.010357 0.029833 0.036968 0.056426 0.246254 0.967561
-0.033229 -0.000697 0.017112 -0.998645 -0.030833 -0.041926
-0.031713 0.011751 -0.045325 -0.950733 0.309960 0.005608
-0.003106 0.026431 -0.057019 -0.070773 -0.024793 -0.997184
0.018136 -0.026050 -0.043224 0.405369 -0.914090 -0.010714
-0.008841 -0.029956 0.031940 -0.250123 -0.967610 -0.034192
-0.018522 0.029219 0.003989 -0.573839 0.818968 0.000061
-0.022808 0.025766 -0.028431 -0.687398 0.726106 0.015928
-0.002620 0.034937 -0.014278 -0.083774 0.996092 -0.027990
-0.032702 -0.006044 0.016639 -0.977702 -0.206646 -0.037361
-0.009883 -0.029518 -0.053695 -0.259159 -0.965832 -0.002174
0.030143 -0.012609 -0.020009 0.936634 -0.349824 -0.018404
-0.023540 0.024995 0.039364 -0.301512 0.639047 -0.707609
-0.029546 -0.005619 0.037208 -0.071507 -0.019492 0.997250
0.001327 0.018810 -0.055203 -0.012936 -0.178571 -0.983842
-0.020498 -0.024927 0.016040 -0.535861 -0.843905 0.026029
0.022932 -0.022917 -0.005190 0.629484 -0.777013 0.001233
0.020535 0.027047 0.004328 0.631079 0.775666 -0.009077
-0.027902 -0.014780 0.039960 0.818698 0.549192 0.167693
0.016824 -0.007448 0.036878 -0.121045 0.066731 0.990401
-0.019810 -0.025425 -0.051560 -0.546985 -0.836246 -0.038738
0.030707 0.012056 0.015114 0.942092 0.335328 -0.004303
0.026135 0.020762 -0.051571 0.823462 0.567104 0.017392
0.024788 0.022436 -0.055393 0.760953 0.633627 -0.139525
0.008846 -0.029984 0.038385 0.235638 -0.957509 -0.166285
-0.015396 -0.027884 -0.051942 -0.433989 -0.897435 -0.079145
-0.020454 -0.024581 0.030541 -0.559342 -0.828223 0.034398
-0.032881 -0.005040 0.009533 -0.988727 -0.149474 -0.008700
-0.026064 0.002417 0.036941 -0.147897 -0.013504 0.988911
-0.002918 -0.030758 -0.054532 -0.043767 -0.998914 -0.015978
0.025967 0.021001 -0.010789 0.814480 0.580160 0.006089
0.032623 -0.000600 0.005212 0.999960 -0.005093 -0.007361
0.006925 0.034186 0.030719 0.254318 0.967111 -0.004341
-0.004175 -0.001174 0.037516 0.759794 0.362153 0.539962
-0.031646 0.011361 0.011258 -0.955708 0.294317 -0.000072
-0.003337 0.034831 0.019491 -0.090838 0.995841 -0.006939
0.017118 -0.026277 0.041792 -0.133942 0.106341 0.985267
0.020033 -0.024530 0.025800 0.589741 -0.807499 0.012299
0.010922 0.032746 -0.028164 0.362589 0.931879 0.011478
0.022013 -0.023121 0.021659 0.642549 -0.766095 0.015123
-0.004016 -0.029881 -0.040720 -0.004506 -0.997382 0.072168
-0.028211 -0.010913 -0.059068 0.332231 0.164777 -0.928693
0.021290 0.026365 -0.043768 0.673779 0.738853 -0.010887
0.022846 -0.022434 0.020272 0.675006 -0.736613 0.042048
-0.033216 0.002402 -0.033645 -0.999208 0.039644 0.003460
-0.009432 -0.028953 -0.029215 0.026105 -0.991068 0.130778
0.001214 0.011547 0.036509 0.204495 -0.741179 0.639403
-0.012898 -0.028386 -0.016426 -0.134871 -0.987976 0.075580
0.027743 0.018834 0.032080 0.849306 0.527856 -0.006870
-0.015451 0.031148 0.014226 -0.467593 0.883409 -0.030754
0.002366 0.034668 -0.038423 0.082945 0.996532 -0.006570
0.011251 -0.028367 -0.004889 0.219452 -0.975102 -0.031885
-0.008355 0.033999 -0.007082 -0.267079 0.963666 -0.004173
-0.023113 -0.011657 0.036813 -0.049077 -0.044261 0.997814
0.017471 0.029349 -0.037030 0.504151 0.862944 -0.034049
0.022637 0.019886 -0.058270 -0.651468 -0.442538 -0.616238
-0.008258 0.031024 -0.058977 0.113952 -0.392531 -0.912652
0.015073 0.030824 -0.036384 0.497720 0.867337 -0.000933
-0.002203 -0.008821 -0.055138 0.012186 0.004524 -0.999916
-0.001647 0.034790 -0.039661 -0.037549 0.999111 -0.019149
-0.025792 -0.020811 0.007651 -0.730318 -0.682829 0.019463
-0.006949 -0.029115 0.003227 -0.090746 -0.995696 -0.018839
-0.033128 -0.003209 0.009843 -0.995167 -0.098101 -0.004322
0.007957 0.011369 0.039130 0.021599 -0.093582 0.995377
0.012337 0.032185 -0.028193 0.398771 0.917048 -0.002318
0.011218 -0.021279 0.036743 0.057081 -0.098271 0.993521
0.032434 0.001082 -0.009227 0.999310 0.036785 0.005048
-0.005759 -0.029813 -0.040407 -0.046104 -0.996785 0.065530
0.004099 -0.029814 -0.058942 0.071565 -0.563946 -0.822705
-0.030087 0.015585 -0.005343 -0.912118 0.409810 -0.009788
-0.000143 0.035161 0.004889 -0.005389 0.999965 0.006468
0.010922 0.032746 -0.028164 0.362589 0.931879 0.011478
-0.032551 -0.005998 -0.030078 -0.981522 -0.191318 -0.003423
