0.006251 -0.101551 -0.095391 0.167837 -0.897613 0.407580
-0.006673 0.113787 -0.169832 0.117180 0.976941 -0.178479
-0.010428 0.197049 -0.123066 0.666678 -0.450142 -0.594065
0.004220 0.183132 -0.123695 0.618259 -0.445428 -0.647572
-0.019421 -0.196299 -0.224641 0.440641 0.851653 -0.283766
-0.176913 -0.160443 0.091575 -0.725999 -0.418677 -0.545560
0.007927 0.378823 0.029534 -0.115712 -0.782038 0.612394
-0.184839 -0.262654 0.100666 0.964483 -0.231621 0.126984
0.018794 -0.137735 -0.151837 0.543800 -0.536705 0.645158
0.172340 -0.181531 0.112665 0.473800 0.762651 0.440316
0.152800 0.007728 0.023500 -0.055790 -0.000469 -0.998442
0.139185 -0.150980 0.205702 0.029992 0.000000 -0.999550
0.024246 -0.227592 0.132409 -0.000000 -1.000000 -0.000000
0.169071 0.121862 0.071748 0.084918 -0.965110 0.247692
-0.075877 -0.311298 0.227896 0.608758 0.000000 -0.793356
-0.002211 -0.070747 -0.243303 0.000000 -0.284926 -0.958550
0.045906 -0.100313 0.269100 -0.342530 0.906889 0.245410
-0.091867 -0.262284 0.263714 0.453130 -0.422719 -0.784845
0.154259 0.018982 0.023767 -0.372004 0.039183 -0.927404
-0.156405 -0.146181 0.009927 -0.818348 0.206469 -0.536355
0.022262 -0.101326 -0.112233 0.593190 -0.700092 0.397489
-0.004306 0.192398 -0.088653 0.000000 0.437096 -0.899415
-0.158750 -0.147382 0.013989 0.002027 0.745745 0.661544
-0.019201 0.208902 -0.155140 1.000000 0.000000 0.000000
-0.023216 -0.185981 -0.205654 0.543910 0.746064 -0.384122
0.157396 -0.214530 0.182402 0.753637 -0.657283 -0.003076
-0.084932 -0.212774 -0.054080 0.264186 0.581693 0.769311
-0.087198 -0.147381 0.262430 -0.374634 0.170976 0.911272
0.084567 -0.146126 -0.058692 -0.141086 -0.208815 0.967725
0.068331 -0.300088 -0.016801 0.000000 1.000000 -0.000000
-0.082276 -0.214231 -0.053334 -0.134990 -0.635477 -0.760228
-0.033606 -0.254306 -0.040730 -0.130538 0.000000 -0.991443
0.163023 -0.199254 0.020240 0.995700 0.000000 -0.092631
0.129205 -0.314639 0.176309 0.866025 0.000000 0.500000
0.022262 -0.117718 -0.155940 -1.000000 0.000000 0.000000
-0.095295 -0.192391 -0.051057 0.710054 -0.295309 0.639231
-0.011091 -0.158437 -0.279978 -0.224896 0.772964 -0.593252
0.022262 -0.099393 -0.216646 1.000000 0.000000 0.000000
0.157972 -0.145652 0.195885 -0.759133 -0.295656 -0.579918
-0.169767 -0.096138 0.149337 0.968979 -0.053978 -0.241176
0.006647 -0.043966 -0.080268 -0.232874 -0.927308 0.293035
0.014964 -0.079927 -0.150300 -0.401058 -0.752709 0.522094
0.006670 0.159787 -0.191820 0.223665 0.918927 -0.324881
0.015234 0.219794 -0.148995 0.000000 0.866025 0.500000
-0.181446 -0.194259 0.103944 0.947407 -0.295691 -0.122424
-0.029282 -0.169249 -0.202172 -1.000000 0.000000 0.000000
-0.011091 0.055615 -0.252355 -0.223591 0.126738 -0.966408
-0.002048 0.195120 -0.117936 -0.000000 -0.576717 -0.816944
-0.011091 0.126834 -0.234073 0.225812 -0.456019 0.860846
0.024698 0.138250 -0.179905 0.985508 -0.146903 -0.084814
0.002110 -0.216816 0.277593 0.107947 -0.819920 0.562208
-0.078266 0.200018 -0.035290 0.118660 -0.971432 0.205525
0.155585 -0.041679 0.029210 0.923856 0.007847 -0.382660
-0.006327 0.175074 -0.159005 0.000000 -1.000000 0.000000
0.022262 -0.016176 -0.245525 -1.000000 0.000000 0.000000
-0.154896 -0.148495 0.007315 0.753454 -0.106876 0.648757
-0.001983 0.195380 -0.135587 0.000000 -0.726680 -0.686976
0.158291 0.057613 0.177602 -0.928002 0.164001 0.334538
0.070762 0.075360 -0.052445 0.382680 0.007853 -0.923848
0.168915 -0.093272 0.147239 -0.032876 0.920188 -0.390094
0.104518 -0.199254 0.240370 0.999550 0.000000 -0.029992
-0.148660 -0.170068 0.188982 -0.489886 -0.824630 0.282836
-0.159105 -0.144116 0.017778 0.934540 -0.295309 0.198564
-0.169639 -0.095150 0.055973 0.929988 -0.351581 0.107301
-0.029282 -0.185785 -0.265301 0.000000 0.866631 -0.498949
0.022836 0.206760 -0.117672 0.011072 -0.666528 0.745398
-0.132701 0.200018 0.025097 0.205525 0.971432 0.118660
0.176461 -0.208074 0.087157 -0.651130 0.379483 0.657284
-0.043703 0.071763 0.267516 -0.382667 0.007850 0.923853
-0.030886 0.393261 0.179832 0.079163 -0.938766 -0.335338
0.094792 -0.194952 -0.054621 0.581001 0.185114 -0.792572
0.081994 -0.160876 0.262082 -0.030389 0.425830 -0.904293
0.002661 0.272129 -0.182674 -0.568692 -0.386048 0.726331
-0.154197 -0.008997 0.022041 -0.933492 0.065870 0.352498
0.006647 -0.079535 -0.186464 0.233550 0.305187 0.923209
0.016955 0.215302 -0.153038 0.000000 0.500000 0.866025
-0.144784 0.199144 0.167590 0.524097 -0.823524 -0.217099
0.002264 -0.205154 -0.274996 0.112860 -0.904989 -0.410193
0.046420 -0.093809 0.272174 0.188458 -0.684336 -0.704391
0.014994 0.157018 -0.190820 0.387234 0.880813 -0.272432
-0.120503 0.009600 0.223360 -0.793330 0.007851 0.608741
0.088855 -0.216893 -0.049306 0.325565 -0.758964 -0.563897
-0.157384 0.089071 0.039555 0.187599 0.400346 -0.896956
0.144302 -0.168703 0.008025 0.190166 -0.762650 -0.618225
-0.158290 -0.194952 0.191673 0.899448 -0.185114 -0.395886
-0.019201 0.221044 -0.147779 1.000000 0.000000 0.000000
-0.150635 0.018302 0.023899 -0.056794 -0.039440 0.997607
0.162293 0.089494 0.167285 0.914456 -0.272003 -0.299642
0.162614 0.104122 0.046463 0.087415 -0.727711 0.680290
0.078053 -0.186782 0.260408 0.139204 -0.536669 -0.832231
0.001812 -0.145870 -0.045245 0.130538 0.000000 -0.991443
-0.158360 -0.142972 0.016488 0.898797 -0.409671 0.155993
0.006670 -0.153567 -0.269409 -0.223606 -0.937007 0.268364
0.005551 -0.148495 -0.080351 0.185114 0.106876 -0.976888
0.022262 0.107214 -0.197031 0.000000 0.592563 -0.805524
-0.026683 -0.117933 -0.191813 -1.000000 0.000000 0.000000
0.160786 -0.146677 0.013192 -0.899448 -0.185114 0.395886
-0.147627 0.321757 0.167819 0.854455 -0.082115 -0.512995
0.022994 -0.305577 0.274063 -0.071295 0.837643 -0.541545
-0.008273 0.094684 -0.139498 0.175142 0.671909 0.719628
-0.006673 -0.079289 -0.185720 -0.117443 0.311694 0.942896
0.065787 -0.156763 -0.052519 -0.586885 -0.239796 -0.773346
-0.019358 0.199984 -0.118953 0.011262 0.652063 0.758081
-0.099578 -0.160370 -0.039907 -0.849297 -0.503391 -0.159034
0.002264 0.001095 -0.255317 -0.112180 0.048982 0.992480
-0.160319 -0.148394 0.022415 -0.997601 0.067595 0.014913
-0.149864 -0.009517 0.017675 -0.330908 0.087204 0.939625
0.074803 -0.170332 -0.047314 -0.213040 -0.802374 -0.557504
-0.167425 0.276327 0.053928 0.988100 0.134862 0.073964
0.018972 -0.161212 -0.068659 -0.762651 0.440316 0.473800
-0.071813 0.064916 0.260232 0.473190 -0.224862 0.851779
-0.136475 0.200018 0.181947 0.205525 -0.971432 -0.118660
-0.154484 -0.012171 0.184303 -0.990168 0.040999 0.133737
0.160277 0.200018 0.102433 -0.237320 -0.971432 0.000000
-0.154157 -0.136509 0.175446 -0.721674 0.622701 -0.302375
-0.019304 0.213975 -0.153547 0.000000 -0.609319 -0.792926
-0.141972 -0.194689 0.204794 -0.197343 0.196435 0.960452
-0.080909 -0.156774 0.263335 0.073615 0.314134 -0.946520
0.018775 0.101410 -0.137833 0.558882 -0.547134 -0.623134
-0.010740 0.127279 -0.233820 0.167946 -0.584024 0.794173
-0.084105 0.131940 0.250269 0.499984 -0.007920 -0.865999
0.145403 -0.028457 0.075115 0.991443 0.000000 -0.130538
-0.017976 0.218371 -0.073721 0.130141 0.573949 0.808484
0.012782 0.198570 -0.117428 0.004922 0.943411 0.331589
0.022262 0.123118 -0.150631 -0.846609 0.466747 0.255734
-0.160916 0.108818 0.041520 -0.425205 0.553012 -0.716504
0.022911 0.207043 -0.112630 0.999890 0.000000 -0.014852
0.018790 -0.030080 0.247875 0.130513 0.000000 0.991447
-0.008187 0.210651 -0.151676 0.618315 0.560038 0.551401
-0.019421 0.157010 -0.190839 0.440658 -0.846339 0.299217
-0.028632 0.137094 -0.178585 0.000000 -0.991445 0.130526
-0.008128 -0.201766 -0.078764 -0.403398 -0.108090 -0.908618
-0.175314 -0.104953 0.102433 0.789747 -0.613432 0.000000
-0.008187 0.168056 -0.115516 0.618259 0.299956 0.726486
0.184032 -0.152265 0.107232 0.976888 -0.055323 0.206468
-0.151507 0.059009 0.023047 0.322916 0.247633 -0.913457
-0.173946 -0.301388 0.146318 -0.541545 -0.837643 0.071295
-0.001983 0.202684 -0.123676 0.000000 -0.656143 -0.754637
-0.096173 -0.121788 -0.007456 -0.608774 0.000000 -0.793343
0.096492 -0.214530 0.249762 0.654208 -0.657283 0.374154
-0.181536 -0.204222 0.102433 -0.976888 -0.213751 0.000000
-0.069413 0.385161 0.170075 -0.411748 0.873252 0.260568
0.075238 -0.170339 -0.047406 0.120513 0.857000 0.501027
0.047287 0.110851 0.271743 -0.108617 0.336779 -0.935298
-0.132120 -0.156763 0.000509 0.121586 -0.239796 -0.963180
0.010791 -0.094405 -0.174206 0.289976 0.956171 -0.040634
0.155794 0.075609 0.177155 0.314283 -0.327714 -0.890971
0.001248 -0.181616 0.277646 0.000000 0.758966 0.651131
-0.116881 0.363452 0.059694 0.785309 -0.584349 0.204516
-0.151642 -0.164499 0.009979 0.613448 0.581692 0.534149
0.157787 -0.195741 0.007998 -0.770438 -0.151145 0.619339
-0.173964 -0.163452 0.114905 0.651131 0.536670 -0.536670
-0.173911 -0.194882 0.085333 0.562375 -0.107931 0.819808
-0.011068 -0.079535 -0.186464 0.233550 -0.305187 -0.923209
-0.089350 -0.141273 0.259354 -0.454307 0.417630 0.786886
-0.141691 -0.198302 0.205209 -0.077195 0.107812 0.991170
-0.040443 0.199245 -0.053161 -0.119340 0.887352 -0.445381
-0.150303 0.007728 0.181366 0.923851 -0.007852 -0.382672
-0.008187 0.277294 -0.164810 0.619485 -0.711833 -0.330958
-0.072360 0.074761 0.260857 -0.568921 0.081352 0.818358
0.001990 0.066882 -0.106691 0.058775 -0.837028 -0.543994
-0.009700 0.213392 -0.152422 0.666152 0.514674 0.539771
0.126946 0.351728 0.135472 -0.837822 -0.520776 -0.163851
-0.172231 -0.218082 0.102433 0.565673 0.824630 0.000000
-0.004306 0.186611 -0.093765 1.000000 0.000000 0.000000
-0.109623 0.127529 0.198575 0.793356 0.000000 -0.608758
0.045939 0.108961 0.269611 0.298777 0.908474 -0.292245
-0.025736 -0.131269 -0.229355 0.593214 -0.302113 0.746207
-0.159009 -0.203819 0.029581 0.930448 0.196435 -0.309322
-0.088809 -0.188969 -0.054365 -0.369998 0.511868 -0.775301
0.002361 0.175701 -0.157490 0.000000 -0.707107 0.707107
0.084401 -0.210477 0.261060 -0.155878 0.409490 -0.898900
0.006461 0.269798 -0.164060 0.666821 -0.031103 0.744569
0.004220 0.186607 -0.126221 0.618259 -0.478946 -0.623191
0.092808 -0.133942 0.251889 -0.495684 -0.733105 -0.465676
-0.159447 -0.152265 0.189669 -0.949244 -0.055323 0.309637
-0.001236 -0.146677 -0.080351 -0.106876 0.185114 -0.976888
-0.019393 0.106220 -0.191369 0.455410 0.609182 -0.649229
-0.165214 -0.135179 0.118234 0.376293 -0.655135 -0.655135
-0.002211 0.018792 -0.204412 0.000000 -0.010591 0.999944
-0.182073 -0.150980 0.102433 0.999990 -0.003462 -0.002656
-0.008736 -0.209118 -0.076155 -0.545637 -0.418591 -0.725991
-0.002211 0.112706 -0.083166 0.000000 0.821539 0.570153
-0.071603 -0.194689 -0.057824 -0.309322 -0.196435 0.930448
-0.162749 0.186958 0.148997 -0.961975 0.000000 0.273136
-0.045316 0.186958 -0.061564 0.273136 0.000000 0.961975
0.022262 0.123235 -0.108285 -0.593017 -0.549434 -0.588603
0.159302 -0.204551 0.034007 0.835636 -0.227924 0.499763
-0.001983 0.237449 -0.172779 0.000000 -0.460631 -0.887592
-0.000116 0.183941 -0.059819 -0.115774 0.000000 0.993276
-0.006673 0.105164 -0.148832 -0.117142 -0.608630 -0.784760
-0.028632 0.137493 -0.180340 0.967558 0.218800 0.126324
0.073579 -0.199254 -0.058125 -0.331719 0.000000 -0.943378
-0.006686 0.165334 -0.125193 0.112130 -0.429130 -0.896256
0.007665 0.364894 0.011616 0.762315 -0.393827 0.513591
-0.029282 -0.186286 -0.243862 0.000000 0.971993 -0.235009
0.158265 0.073006 0.027282 -0.461593 -0.193476 0.865736
-0.001983 0.182025 -0.111081 0.000000 0.370339 0.928897
-0.085301 -0.170068 -0.047475 -0.499984 0.007920 -0.865999
-0.180746 -0.199427 0.109736 0.947397 0.041703 -0.317332
0.003889 -0.149280 -0.257451 0.168080 0.906631 -0.387001
-0.141805 -0.168703 0.008025 -0.190166 -0.762650 -0.618225
-0.138333 0.168705 0.185809 0.000000 -1.000000 0.000000
0.024698 0.142205 -0.179898 0.999997 0.000000 0.000000
0.002645 -0.101561 0.274805 -0.130494 -0.007851 -0.991418
-0.027575 0.202769 -0.111073 0.013257 -0.450874 0.892489
0.004220 0.275124 -0.161594 -0.618126 0.067011 -0.783217
0.042952 0.113785 0.272465 -0.067497 0.143011 -0.987417
-0.141849 0.342004 0.163732 0.567806 -0.803731 -0.177799
0.089671 -0.208630 0.260610 -0.360701 0.403398 -0.840931
0.004871 -0.137460 -0.076201 0.155864 0.581693 -0.798335
-0.106668 0.199245 0.210349 -0.326042 -0.887352 0.326042
-0.027675 0.204181 -0.117825 -0.999890 0.000000 0.014852
0.024478 0.142961 -0.180318 -0.967022 -0.235471 0.097083
-0.006628 0.277310 -0.177929 0.000000 -0.838408 0.545043
0.018546 0.198702 -0.112143 0.006444 -0.900828 0.434128
0.020819 0.182898 -0.065451 -0.050576 0.000000 0.998720
0.006461 0.161592 -0.111085 -0.666469 0.229175 0.709435
-0.159723 -0.146555 0.018214 -0.947403 0.194969 -0.253802
-0.002374 -0.185735 0.281066 -0.155864 0.581693 0.798335
0.022947 0.200122 -0.110250 0.011072 -0.666528 0.745398
0.006689 0.178731 -0.160521 1.000000 0.000000 0.000000
-0.089350 -0.160686 0.259354 0.454307 0.417630 -0.786886
0.091527 -0.155778 -0.056506 -0.440531 0.206468 0.873672
0.176461 -0.133942 0.097868 -0.651129 -0.733106 0.196435
0.071404 -0.140758 0.259439 0.555368 -0.355109 -0.751973
-0.005219 -0.090925 -0.181589 0.058667 -0.880504 -0.470395
-0.001278 -0.160352 -0.078763 -0.197576 -0.476828 -0.856504
0.006689 0.189722 -0.159702 -1.000000 0.000000 0.000000
0.086772 0.118092 0.221451 0.608758 0.000000 0.793356
-0.181536 -0.149694 0.097634 0.976888 -0.055323 0.206468
-0.166624 -0.071361 0.068672 -0.991411 0.007858 -0.130544
0.074800 0.057353 0.258095 0.825290 0.243449 -0.509538
-0.146922 -0.219720 0.016887 0.410322 0.880633 0.236900
-0.054437 0.329512 -0.035393 0.096681 -0.838061 0.536942
-0.050039 -0.093252 0.271331 -0.284080 0.248224 0.926112
-0.015330 0.062072 -0.094369 0.346020 0.816367 0.462402
0.182445 -0.207661 0.107286 -0.908617 0.361678 -0.208815
0.144410 -0.277189 -0.018082 -0.771229 0.234536 0.591776
-0.096640 -0.209151 0.252186 0.767945 0.425831 -0.478465
0.004220 0.263448 -0.181220 0.618315 -0.176982 -0.765744
-0.176192 -0.210505 0.092232 0.725974 0.545560 0.418720
0.006192 0.053375 -0.202551 -0.175163 0.157161 -0.971915
0.002252 -0.026574 -0.201071 -0.117140 -0.167157 -0.978947
0.014971 -0.042337 -0.201819 0.455286 0.202133 0.867097
0.155949 -0.213251 0.191750 0.691378 -0.602213 0.399169
-0.156805 -0.145683 0.170859 -0.835636 0.227924 -0.499763
0.015234 0.221044 -0.147779 1.000000 0.000000 0.000000
-0.165214 -0.170332 0.113606 0.376292 0.802373 -0.463251
0.162669 -0.154409 0.019718 -0.980156 0.197655 0.015063
0.099127 -0.155833 0.255151 0.767531 -0.208815 0.606047
-0.011027 -0.092231 -0.170518 0.175169 -0.920854 0.348345
0.171503 -0.098082 0.054930 0.746595 -0.517906 -0.417575
0.089671 -0.160356 -0.055745 0.360701 -0.403398 -0.840931
-0.091375 -0.181385 0.248160 0.555310 -0.763946 -0.328660
0.024828 -0.165955 -0.234326 -1.000000 0.000000 0.000000
0.024432 0.207033 -0.115182 -0.999890 0.000000 0.014852
0.074262 -0.213726 0.257838 0.302375 0.622701 -0.721674
0.004220 0.186607 -0.126221 -0.618259 0.478946 0.623191
-0.026859 0.368728 0.233585 0.087480 -0.899188 -0.428729
0.006689 0.221729 -0.149357 0.000000 -0.966628 -0.256184
-0.161816 0.108159 0.041802 0.672536 -0.372593 0.639429
0.002661 0.240619 -0.155809 0.000000 0.384133 0.923278
0.155657 -0.047827 0.024203 0.156994 0.285176 0.945530
0.014999 0.139981 -0.115690 0.440544 0.505985 0.741552
0.158670 -0.202629 0.195570 -0.834126 0.093115 -0.543657
0.022262 -0.147230 -0.214046 0.000000 0.681489 -0.731828
-0.090312 -0.216292 0.251889 0.495684 0.733105 -0.465676
0.151803 0.042062 0.184647 0.478095 -0.163309 -0.862992
-0.167614 0.109981 0.147993 -0.798865 -0.600385 -0.036765
-0.019421 0.154610 -0.196853 0.440658 -0.819880 0.365538
-0.002914 0.151379 -0.210786 -0.056079 0.813587 -0.578732
-0.144254 -0.211727 0.200841 -0.295561 -0.536670 0.790335
-0.019201 0.196778 -0.159493 -1.000000 0.000000 -0.000000
0.102083 -0.159799 0.246534 0.894790 -0.379482 0.235254
-0.005750 -0.211376 -0.076201 0.301106 0.521532 0.798335
0.080065 0.226143 -0.041949 -0.487882 0.300455 0.819572
0.083462 0.042062 0.252988 0.862992 0.163309 -0.478095
-0.003428 0.384148 0.035689 0.064465 -0.842103 0.535449
0.015234 0.195104 -0.165096 0.000000 -0.115524 0.993305
0.081789 0.199245 0.241935 -0.230546 -0.887352 -0.399318
-0.001333 0.218761 -0.071026 -0.013858 -0.347038 -0.937749
-0.181536 -0.194952 0.099949 -0.976888 0.185114 -0.106876
0.024470 0.143408 -0.178756 0.967558 0.252648 0.000000
-0.080414 0.038958 0.257839 0.441846 -0.015929 -0.896950
-0.026216 -0.227592 0.249505 0.000000 1.000000 0.000000
-0.012534 -0.117578 -0.123849 -0.278453 -0.754874 0.593826
-0.103616 0.194441 0.207297 -0.658598 -0.364002 0.658598
-0.006673 0.113787 -0.169832 -0.117180 -0.976941 0.178479
-0.006686 -0.206626 -0.256077 -0.112212 -0.989585 0.090165
-0.028859 0.142229 -0.179905 -0.985508 0.146903 -0.084814
0.015234 0.221729 -0.149357 1.000000 0.000000 0.000000
0.022262 -0.168834 -0.225119 0.000000 -0.805492 0.592606
-0.169844 -0.189022 0.084709 -0.473800 0.440316 -0.762651
0.160596 -0.159386 0.188828 0.891293 -0.361679 0.273470
0.171713 -0.116372 0.119206 -0.991417 -0.007722 -0.130508
-0.008649 -0.141083 0.281066 0.425830 -0.425830 -0.798334
0.094621 0.311139 -0.013918 -0.005140 0.937889 -0.346897
0.101139 0.079376 -0.005561 -0.608774 0.000000 0.793343
0.024698 0.138250 -0.177606 -0.985508 0.146903 -0.084814
-0.019201 0.194458 -0.154119 1.000000 0.000000 -0.000000
-0.001983 0.163687 -0.114996 0.000000 -0.332381 -0.943145
0.094364 -0.262284 -0.058848 0.453130 0.422719 -0.784845
0.101300 0.186207 0.210304 0.608758 0.000000 0.793356
0.006647 0.077213 -0.120007 0.232976 -0.763712 -0.602051
-0.015358 -0.197918 -0.224102 -0.333469 -0.894418 0.298017
0.151934 0.007721 0.187865 0.332992 0.002824 -0.942925
-0.146710 0.016092 0.015745 -0.793330 0.007853 -0.608741
0.002264 -0.157838 -0.280439 0.112860 0.788220 -0.604956
0.160187 -0.146181 0.012154 -0.873672 -0.206468 0.440531
0.015234 0.171664 -0.178227 0.000000 0.704552 -0.709652
-0.152308 0.057428 0.175506 0.923851 -0.007852 -0.382672
-0.019421 -0.117297 -0.127573 -0.440377 -0.705617 0.555133
0.014999 0.161641 -0.127519 -0.440377 -0.897813 0.000000
0.022262 0.034589 -0.212801 -0.812883 0.041024 -0.580981
-0.011091 -0.205879 -0.256145 0.223653 0.970648 -0.088440
-0.006673 0.113196 -0.172477 -0.117180 -0.959665 0.255562
-0.001983 0.277099 -0.162303 0.000000 -0.823176 -0.567786
0.123347 -0.116483 -0.019666 -0.793327 -0.007852 0.608745
0.166748 -0.089407 0.160202 0.860118 0.494968 -0.123301
-0.018520 -0.156276 -0.068659 -0.850626 -0.227924 -0.473799
0.172340 -0.140747 0.084709 0.473800 0.440316 -0.762651
0.000989 0.053512 -0.201744 -0.058718 0.159338 -0.985476
0.159118 -0.041738 0.177741 0.974742 0.125000 -0.185077
-0.023216 -0.118795 -0.132949 -0.543800 -0.643678 0.538481
0.008112 -0.192391 -0.078764 -0.295309 -0.295309 0.908617
-0.157567 -0.162088 0.180942 0.901600 0.418504 0.109416
-0.157047 -0.146011 0.011041 0.846009 -0.213751 0.488446
0.176461 -0.182217 0.097868 -0.651129 -0.733106 0.196435
0.160596 -0.142574 0.188828 -0.891293 -0.361679 -0.273470
0.009105 -0.083767 -0.158958 -0.289765 -0.752254 0.591735
-0.140878 0.194511 0.143620 -0.815930 -0.469081 0.337965
0.008112 -0.157843 -0.078764 0.295309 -0.295309 -0.908617
-0.149054 -0.227592 0.189210 0.865999 -0.007920 -0.499984
-0.029282 -0.171551 -0.228141 -1.000000 0.000000 -0.000000
-0.018443 0.165077 -0.105164 0.999890 0.000000 -0.014852
0.167710 -0.179902 0.113606 0.376292 0.802373 0.463251
0.014999 -0.109987 -0.117428 -0.440539 0.752652 -0.489326
-0.150490 -0.181616 0.014827 0.563897 -0.758964 0.325565
0.125314 0.361718 0.092226 0.525299 0.834610 -0.165791
-0.029251 -0.106178 0.271011 -0.130504 0.007955 0.991416
-0.010428 0.186321 -0.116421 1.000000 0.000000 0.000000
-0.154372 0.075541 0.177359 -0.003359 0.307447 0.951559
-0.023216 -0.153120 -0.163986 -0.543911 -0.547442 0.635978
0.163378 -0.075223 0.170173 -0.822374 0.084556 -0.562630
0.143040 -0.183467 0.005840 0.139032 0.699991 -0.700487
-0.066574 -0.199254 -0.055970 0.525749 0.000000 -0.850640
-0.010873 -0.143982 0.281066 0.521532 -0.301106 -0.798335
0.099127 -0.146126 0.255151 0.767531 0.208815 0.606047
-0.002211 0.064027 -0.199853 0.000000 -0.189157 0.981947
0.022847 0.207368 -0.116965 -0.008133 0.836761 -0.547508
0.014396 0.158726 -0.110840 -0.002678 -0.983700 -0.179795
0.156200 -0.193471 0.166971 -0.773346 -0.239796 0.586885
-0.011091 0.153697 -0.120453 -0.223595 0.447484 0.865889
0.124069 -0.245330 0.225254 -0.670583 -0.317235 -0.670583
-0.003924 -0.060836 -0.127099 -0.058584 0.882520 -0.466612
0.161186 -0.059151 0.029590 -0.898799 0.016507 0.438050
-0.088069 -0.164976 0.257134 -0.399169 -0.602213 0.691378
0.178205 -0.183513 0.102127 -0.725932 -0.681882 0.089774
-0.029282 -0.098646 -0.213301 0.000000 -0.607516 -0.794307
0.166127 -0.088892 0.159433 0.672721 0.649477 -0.354437
0.150241 -0.156734 0.002538 -0.503226 0.197575 0.841266
0.022262 -0.073262 -0.197751 -0.896740 -0.155154 -0.414469
0.147951 -0.227592 0.171080 -0.000000 -1.000000 -0.000000
-0.144179 -0.006641 0.084776 0.991447 -0.000000 0.130513
0.020600 -0.162153 -0.064029 -0.802373 0.463251 0.376292
-0.148208 -0.182217 0.010873 0.465676 -0.733105 0.495684
0.182445 -0.142574 0.107286 0.908617 0.361678 0.208815
0.101007 -0.116483 0.025292 -0.000000 1.000000 0.000000
0.023528 0.139419 -0.175694 0.000000 0.258819 -0.965926
-0.019201 0.218462 -0.145565 0.000000 0.395940 0.918276
0.014999 -0.117297 -0.127573 -0.440377 0.705617 -0.555133
0.154738 -0.144116 0.198976 -0.639231 -0.295309 -0.710054
-0.029282 -0.095554 -0.217109 -1.000001 0.000000 0.000000
0.158107 0.182898 0.144463 0.903684 -0.353160 0.242142
0.151001 -0.141083 0.004545 0.478465 0.425831 -0.767945
0.183435 -0.146164 0.097715 0.947387 0.254120 -0.194624
0.133323 0.348558 0.068102 -0.674212 -0.716271 0.179986
0.001248 -0.109078 0.279028 0.000000 0.600594 -0.799554
-0.155805 -0.194952 0.195976 0.792572 -0.185114 -0.581001
-0.026683 -0.127330 -0.161239 0.000000 0.950932 -0.309400
0.182445 -0.144116 0.109296 0.908617 0.295309 0.295309
-0.018571 0.168351 -0.113811 0.999890 0.000000 -0.014852
-0.025284 0.124339 -0.107906 -0.592923 0.549339 0.588786
-0.173964 -0.214530 0.111252 -0.651130 -0.657284 0.379483
-0.010621 0.080077 -0.248079 0.168013 -0.215355 0.961974
0.134616 -0.156763 0.204356 0.121586 0.239796 -0.963180
0.154534 -0.133256 0.179117 0.630481 0.762650 -0.144425
-0.159189 -0.075993 0.033559 0.331529 0.308259 0.891664
0.010937 -0.129755 -0.234901 -0.334159 -0.421146 0.843193
0.142307 0.319831 0.158304 -0.785741 -0.560142 -0.262395
0.148577 -0.214530 0.007189 0.374154 -0.657283 -0.654208
-0.144455 -0.056305 0.192995 -0.793338 0.007853 0.608731
0.080920 -0.014103 0.258103 0.498378 -0.108106 -0.860193
-0.152945 0.033673 0.019112 -0.453083 0.086347 -0.887277
0.041034 0.196432 -0.041399 -0.285539 0.665809 0.689322
-0.006686 -0.156932 -0.159558 0.112212 0.648264 -0.753102
-0.006673 0.049084 -0.202535 0.117140 0.129135 -0.984684
0.078480 -0.195467 -0.058908 0.187364 -0.263158 0.946384
0.006689 0.189722 -0.159702 1.000000 0.000000 0.000000
0.019762 -0.173497 -0.283595 0.593035 0.271310 -0.758090
0.023805 -0.168565 -0.224777 0.000000 -0.786251 0.617907
0.024178 0.142785 -0.136996 0.999998 0.000000 0.000000
-0.179949 -0.150980 0.112139 0.908617 0.000000 -0.417630
-0.127874 0.176642 0.173495 0.923875 0.000000 -0.382694
-0.028859 0.139669 -0.135924 0.991722 0.127308 -0.016760
0.082444 0.182898 0.243069 0.467781 -0.353160 0.810221
0.123954 0.163898 -0.020273 0.631235 0.450650 -0.631235
-0.010655 0.184184 -0.150047 1.000000 0.000000 0.000000
-0.028859 0.139871 -0.177376 0.000000 0.258819 -0.965926
0.006670 0.164584 -0.165596 -0.223596 -0.974223 0.029895
-0.002211 -0.186227 -0.290822 0.000000 -0.227050 -0.973883
0.015234 0.185890 -0.167342 0.000000 -0.631505 0.775372
-0.045316 0.186958 -0.061564 0.000000 1.000000 0.000000
0.169703 -0.099325 0.054905 0.227692 -0.876164 -0.424846
-0.004306 0.169897 -0.096640 0.000000 0.018253 -0.999833
-0.029027 0.118555 0.273937 0.130410 -0.007425 -0.991432
-0.162592 -0.274593 0.197026 0.898769 -0.231553 -0.372288
-0.081451 0.194441 0.245672 -0.465699 0.364002 0.806614
-0.126114 0.183968 0.027783 0.793356 -0.000000 0.608758
-0.153704 -0.145196 0.037894 0.773346 -0.239796 -0.586885
-0.014132 0.200180 -0.153124 0.000000 0.216142 -0.976362
0.183696 -0.145744 0.105261 -0.947389 -0.295741 -0.122444
-0.040393 0.199331 -0.052936 -0.135797 0.934920 -0.327846
-0.152241 -0.206118 0.005890 -0.639231 -0.295309 -0.710054
-0.024661 0.080049 -0.241698 -0.593029 0.175955 -0.785720
-0.155748 -0.192371 0.170442 0.752109 -0.354956 0.555282
0.004220 0.234734 -0.154240 0.618489 0.363888 0.696460
0.095656 -0.133256 0.245486 0.618225 0.762650 0.190166
-0.140575 0.197923 0.054320 0.689474 0.665626 0.285602
-0.005890 -0.090104 -0.183066 0.058666 -0.825964 -0.560662
-0.002211 -0.128751 -0.236911 0.000000 -0.446831 0.894618
0.023528 0.162531 -0.132948 1.000000 0.000000 0.000000
0.176461 -0.190435 0.117708 0.651130 0.379483 0.657284
0.169024 -0.245330 0.147388 0.916033 0.317235 0.245450
0.168023 0.121634 0.071945 0.245936 -0.943731 0.221105
-0.124950 -0.287173 0.026266 -0.793356 0.000000 -0.608758
0.000339 0.159231 -0.098676 0.000000 0.951320 -0.308204
-0.162592 -0.274593 0.197026 0.866025 0.001516 -0.499999
-0.156085 -0.041938 0.028182 0.755917 -0.228002 -0.613681
0.031748 -0.106178 0.271011 0.222915 -0.947063 -0.231044
-0.099672 0.024036 0.209637 0.608758 0.000000 -0.793356
0.146457 0.118547 0.083117 -0.991443 0.000000 0.130538
0.039231 0.200214 -0.049968 -0.015773 -0.992673 0.119795
0.001248 0.119708 0.276413 0.000000 -0.825215 0.564818
-0.146081 -0.214530 0.197677 -0.374154 -0.657283 0.654208
-0.146081 -0.183979 0.197677 0.374154 -0.657283 -0.654208
0.044750 0.242119 -0.081811 -0.245335 0.335114 0.909675
-0.008187 0.159981 -0.112368 -0.637388 -0.684211 -0.354389
0.011145 -0.189357 -0.076201 0.425830 0.425830 -0.798334
-0.026133 0.203074 -0.108031 0.014538 -0.204491 0.978761
0.001248 -0.109841 0.278231 0.000000 0.825360 -0.564607
0.179882 -0.143982 0.090312 -0.798335 -0.301106 0.521532
0.101167 -0.192578 0.251025 -0.841265 -0.197580 -0.503224
-0.153402 0.008011 0.022052 0.863376 0.026371 -0.503872
0.002361 0.167068 -0.133194 0.060400 0.996714 -0.053980
-0.010428 0.186321 -0.116421 0.666469 -0.344450 -0.661191
0.022262 -0.186286 -0.243862 -1.000000 0.000000 0.000000
0.106846 0.196377 0.208030 0.578663 -0.574716 0.578663
0.018775 0.119088 -0.174045 0.559009 -0.801237 0.213372
0.156245 -0.027139 0.173762 0.923856 0.007848 0.382659
-0.067285 -0.058202 0.259950 0.936863 0.348634 0.027253
-0.010428 0.161589 -0.110263 -0.655767 -0.734467 0.174723
0.022262 0.154379 -0.183443 -0.593319 -0.777858 0.207146
0.018794 -0.093500 -0.228707 -0.544803 0.263198 0.796189
-0.006327 0.178731 -0.160521 1.000000 0.000000 0.000000
0.174507 -0.103024 0.072152 -0.991429 -0.008413 0.130374
0.015234 0.188529 -0.154589 -1.000000 0.000000 0.000000
0.006689 0.219924 -0.146476 0.000000 -0.650798 -0.759251
-0.160701 -0.088945 0.158247 -0.089220 -0.691040 0.717289
0.099656 -0.186782 0.247935 0.790335 0.536670 0.295561
0.010908 -0.056735 -0.196164 -0.346157 -0.267311 -0.899288
-0.006673 -0.090174 -0.183044 0.117088 -0.821531 -0.558012
-0.006327 0.175701 -0.160521 0.000000 -0.707107 -0.707107
0.006689 0.179287 -0.158451 0.000000 0.965926 0.258819
0.022262 0.144480 -0.205643 -1.000000 0.000000 0.000000
0.143074 0.186958 0.181531 0.000000 -1.000000 0.000000
0.084763 -0.009259 0.257468 0.579873 -0.012079 0.814617
0.153482 -0.148467 0.003715 0.585186 0.108090 -0.803663
-0.025719 -0.116483 -0.050648 -0.000000 -1.000000 0.000000
0.006670 -0.148898 -0.255349 0.224148 0.863709 -0.451402
-0.165784 0.115554 0.073541 -0.197213 0.940245 -0.277571
-0.047706 0.242119 -0.080438 -0.239654 -0.727449 -0.642949
0.096796 -0.152265 0.258329 0.667252 -0.055323 0.742775
-0.011091 0.164584 -0.125666 0.223496 -0.420929 -0.879129
0.011712 -0.300088 0.029073 0.000000 1.000000 -0.000000
0.022934 0.199484 -0.111113 -0.999886 -0.000089 0.015107
0.177811 -0.104953 0.102433 -0.789747 -0.613432 0.000000
-0.091659 -0.131628 -0.036141 -0.589334 0.802373 -0.094254
0.155087 0.007748 0.187396 0.588767 0.005007 0.808287
-0.091526 -0.189878 0.258098 0.547919 -0.403399 -0.732840
-0.010655 0.219306 -0.146743 -1.000000 0.000000 0.000000
-0.154085 -0.199254 0.038554 0.789129 0.000000 -0.614228
-0.005750 -0.138859 0.281066 -0.301106 0.521532 0.798335
-0.002211 -0.076751 -0.152932 0.000000 0.804149 -0.594428
0.167710 -0.176909 0.102433 0.376293 0.926501 0.000000
0.079351 -0.227592 0.251149 -0.000000 -1.000000 -0.000000
0.045657 0.174974 0.258838 -0.003300 0.999927 -0.011623
-0.016475 -0.189022 -0.068659 -0.762651 0.440316 -0.473800
0.002361 0.179361 -0.159005 0.000000 1.000000 0.000000
0.030212 0.115307 0.270534 0.263050 0.964121 0.035701
0.007248 0.402434 0.163955 0.141583 0.117517 0.982926
-0.034727 0.373540 0.033228 0.246815 -0.853102 0.459673
0.075994 -0.116483 0.212484 -0.000000 -1.000000 -0.000000
0.022262 0.057252 -0.072290 -0.850169 0.265132 0.454882
-0.072863 0.083628 -0.025344 0.608774 0.000000 0.793343
0.023528 0.138656 -0.176011 0.000000 0.500000 -0.866025
0.165140 0.105402 0.048604 0.424032 -0.884941 0.192551
0.174471 -0.225629 0.104830 0.991413 0.007843 0.130529
-0.161321 0.168705 0.104848 -0.999890 0.000000 0.014852
-0.004306 0.160400 -0.096983 0.000000 -0.624169 0.781290
-0.001911 0.317336 0.004275 -0.005093 0.937888 -0.346902
0.021860 0.165457 -0.102516 0.889634 -0.218469 0.401028
-0.023950 0.158410 -0.108543 -0.883481 -0.468284 0.013123
-0.019201 0.220167 -0.151829 0.000000 0.965926 -0.258819
-0.009394 0.188952 -0.126735 -0.666448 -0.469801 -0.578907
-0.159924 0.090293 0.035590 0.953792 0.031594 0.298803
0.022262 0.137331 -0.119574 -1.000000 0.000000 0.000000
-0.160213 -0.195632 0.180042 0.982225 -0.155864 0.104593
0.023831 0.202578 -0.116951 0.011681 0.651784 0.758311
0.016955 0.219794 -0.148995 0.000000 0.866025 0.500000
-0.010428 0.238865 -0.170046 1.000000 0.000000 0.000000
-0.019393 0.018835 -0.208527 -0.455287 -0.009430 0.890295
-0.139686 -0.184783 0.200511 -0.098973 0.622700 0.776176
0.174347 -0.170068 0.102433 0.999969 0.007920 0.000000
-0.002332 0.113180 -0.154980 0.058312 0.537135 0.841478
0.118679 -0.227592 -0.016598 -0.000000 -1.000000 0.000000
-0.010655 0.195578 -0.153976 1.000000 0.000000 0.000000
-0.158804 -0.202767 0.014083 -0.921582 -0.151145 -0.357549
-0.006673 -0.092433 -0.175785 0.117252 -0.993041 -0.011034
0.087344 -0.129604 0.246808 0.291618 0.919640 0.263098
-0.151507 0.059009 0.023047 -0.322916 -0.247633 0.913457
-0.061867 0.305498 -0.045417 -0.273761 0.466551 -0.841062
-0.019421 0.131069 -0.227304 0.440658 -0.560268 0.701370
-0.165490 0.307281 0.128945 0.957222 0.001169 -0.289352
-0.141999 0.194441 0.140816 0.899661 0.364002 -0.241064
-0.028867 -0.171736 -0.242048 0.000000 -0.828373 0.560177
-0.028632 0.137493 -0.177171 0.967558 0.218800 -0.126324
-0.134588 0.200281 0.180858 0.000000 -1.000000 0.000000
-0.028293 0.138988 -0.181638 -0.000000 0.383662 0.923472
0.015234 0.177634 -0.169548 0.000000 -0.020532 -0.999789
-0.154359 -0.012606 0.020084 0.897357 0.000572 0.441304
-0.061392 -0.227592 0.178840 0.000000 1.000000 0.000000
0.010908 0.113284 -0.178428 0.346262 -0.856836 0.382015
-0.006686 0.165334 -0.125193 -0.112130 0.993694 0.000000
0.156492 0.007760 0.184546 0.999442 0.008492 -0.032293
0.103172 -0.193471 0.235801 -0.963180 -0.239796 0.121586
0.161727 0.089221 0.166400 0.742160 -0.354924 -0.568531
0.018775 -0.047857 -0.074959 -0.558705 0.000000 0.829366
-0.136436 -0.213334 0.152824 -0.923875 0.000000 0.382694
-0.079693 -0.116483 -0.007555 -0.000000 1.000000 0.000000
0.010908 0.053355 -0.078978 -0.346020 0.816367 0.462402
0.158670 -0.154355 0.195570 -0.834126 0.093115 -0.543657
0.087585 -0.116483 -0.047107 0.000000 -1.000000 0.000000
0.083878 0.340393 0.214759 0.459972 0.674771 0.577157
0.022262 -0.168978 -0.242225 0.000000 0.703750 -0.710447
-0.018609 0.201028 -0.116340 -0.013930 -0.346935 -0.937786
-0.155575 -0.028758 0.181792 0.988575 -0.062385 -0.137211
-0.028470 0.140725 -0.136695 1.000000 0.000000 0.000000
0.001248 -0.314639 -0.058043 0.000000 0.926927 0.375243
-0.181536 -0.146181 0.101147 0.976888 -0.206468 0.055323
0.161301 -0.147466 0.014083 -0.921582 -0.151145 0.357549
-0.001830 -0.227592 -0.045929 -0.000000 -1.000000 0.000000
0.083948 0.194441 0.245672 0.465699 0.364002 0.806614
-0.001151 0.203354 -0.117384 -0.013403 -0.434129 -0.900751
-0.026683 0.137331 -0.119574 -1.000000 0.000000 0.000000
0.024496 0.143287 -0.135485 0.000000 -0.923785 -0.382929
-0.006686 -0.152846 -0.269617 0.112187 -0.955279 0.273598
-0.083927 -0.191929 0.262485 -0.231883 0.333683 0.913721
0.014999 -0.086778 -0.233855 -0.440653 0.314712 0.840703
-0.163794 0.128837 0.145650 -0.991417 0.007832 0.130503
0.099966 -0.153492 0.254666 -0.803663 0.108090 -0.585186
-0.008187 0.269837 -0.182487 -0.618126 0.309172 -0.722726
0.015234 0.212951 -0.151829 -1.000000 0.000000 0.000000
-0.076148 -0.048374 0.259935 -0.688943 -0.103980 0.717318
0.096796 -0.197968 -0.053464 0.667252 0.055323 -0.742775
0.023294 -0.127136 -0.173701 0.000000 0.950179 0.311706
0.087976 -0.180357 0.252305 -0.608736 -0.007860 -0.793334
-0.001937 -0.197625 -0.080499 -0.100294 0.041607 -0.994088
-0.171005 0.326976 0.123292 0.595950 -0.802631 0.025049
0.056934 0.184296 -0.049336 -0.358417 0.350473 0.865278
-0.067304 -0.058064 0.258843 0.382673 -0.007852 -0.923851
0.022262 0.156941 -0.165361 -1.000000 0.000000 0.000000
0.023700 -0.128213 -0.168231 0.000000 0.999353 0.035976
-0.159058 0.104401 0.158247 0.923851 -0.007852 -0.382673
-0.026683 -0.101106 -0.173527 -0.813148 0.579412 -0.055416
-0.018438 0.080262 -0.199972 0.400934 0.253356 -0.880376
0.165265 -0.088630 0.158811 -0.399436 -0.732369 0.551440
0.161263 -0.073597 0.165311 -0.180944 -0.402500 0.897359
0.149515 -0.178809 0.187750 -0.383992 -0.919696 -0.081906
0.092387 -0.152215 0.261327 0.461004 -0.100073 0.881737
0.160187 -0.194456 0.192712 0.873672 0.206468 0.440531
0.024828 -0.103393 -0.208735 -1.000000 0.000000 0.000000
0.160032 0.073755 0.031798 0.922073 -0.218979 0.319107
0.018794 0.156847 -0.184101 -0.543930 -0.810871 0.215938
-0.182073 -0.199254 0.102433 0.999990 -0.003462 -0.002656
-0.075897 -0.156025 0.263407 -0.187340 0.263094 -0.946407
-0.019201 0.189189 -0.162579 0.000000 0.318439 0.947943
-0.159583 -0.093878 0.042239 -0.358799 0.736838 0.573004
0.086601 0.131940 -0.045403 0.474914 -0.312772 -0.822575
-0.161126 0.186958 0.104845 0.999890 0.000000 -0.014852
-0.144506 -0.195145 0.204063 -0.310952 0.263210 0.913252
0.017049 -0.197107 -0.074240 0.681769 0.089758 -0.726040
-0.157220 -0.300088 0.193925 -0.705392 -0.580141 0.407258
-0.159876 -0.146126 0.185751 -0.967725 0.208815 0.141086
0.075124 0.192317 -0.025524 -0.496014 0.126021 0.859121
-0.058962 -0.055086 0.262273 0.382731 -0.007854 -0.923826
0.179488 0.310938 0.074720 0.636226 0.746241 -0.195808
-0.002126 0.199019 -0.120701 -0.000000 -0.630298 -0.776353
-0.001983 0.275595 -0.160476 0.000000 0.772443 0.635084
0.022262 -0.109957 -0.187210 1.000000 0.000000 0.000000
-0.163816 0.109201 0.058204 -0.174787 0.892403 -0.416012
0.084181 0.042062 0.255021 0.987643 0.156382 -0.010297
-0.001983 0.192388 -0.132584 0.000000 0.689456 0.724328
-0.019201 0.195578 -0.153976 0.000000 -0.115524 0.993305
0.016955 0.213779 -0.150467 -1.000001 0.000000 0.000000
0.005253 0.212281 -0.136955 -0.666498 -0.571571 -0.478630
0.075124 -0.314639 0.230389 0.000000 -1.000000 0.000000
-0.005360 -0.103594 -0.098068 0.056079 0.909089 -0.412810
0.024698 0.138812 -0.178756 0.000000 1.000000 0.000000
-0.010428 0.247665 -0.171340 -1.000000 0.000000 -0.000000
-0.018634 0.205987 -0.118004 -0.999889 0.000052 0.014929
-0.130407 -0.070526 0.167380 -0.923875 0.000000 0.382694
-0.006327 0.178225 -0.155244 0.000000 -0.258819 -0.965926
0.047759 0.157815 -0.036859 -0.382672 0.000000 0.923884
0.156264 -0.144385 0.167576 -0.752088 -0.354827 0.555393
0.159669 -0.146601 0.011134 0.867895 0.107471 -0.484982
-0.059564 0.328155 -0.036591 0.403696 -0.349337 0.845573
-0.072628 0.192317 0.230389 -0.496014 -0.126021 0.859121
-0.124213 0.355622 0.188476 0.676386 0.318232 0.664252
0.132934 -0.262284 0.234118 -0.640823 -0.422719 -0.640823
-0.072628 -0.314639 -0.025524 0.000000 1.000000 0.000000
-0.123203 0.148016 0.226884 -0.704729 -0.081946 0.704729
-0.015330 -0.060699 -0.122063 0.346157 -0.842194 0.413382
-0.002514 0.369695 0.236525 -0.085901 -0.341565 0.935924
0.002252 0.102677 -0.189343 0.119134 -0.499304 0.858198
-0.080383 0.045522 0.257225 0.878913 -0.140570 -0.455799
0.133543 -0.047624 -0.005491 -0.793331 -0.007851 0.608741
-0.009925 -0.179902 0.268895 -0.463251 0.802373 0.376292
0.006461 0.276465 -0.171048 0.667786 0.742498 -0.052521
-0.010428 0.163045 -0.109497 -1.000013 -0.000000 -0.000000
-0.026683 -0.160918 -0.267305 1.000000 0.000000 0.000000
0.038572 0.198059 0.260337 0.074044 0.823564 0.562370
-0.075140 -0.025504 0.256442 0.963209 0.167453 0.210211
0.035152 0.373540 0.032190 -0.233054 -0.853103 0.466799
0.015234 0.173301 -0.139712 0.000000 -0.762220 -0.647318
-0.096630 -0.194401 -0.050285 -0.767531 0.208815 -0.606047
-0.119611 -0.300088 0.075190 0.000000 -1.000000 0.000000
-0.158397 0.089075 0.165719 0.490015 0.399129 0.774972
0.010937 -0.177901 -0.185222 -0.333468 0.762160 -0.554897
-0.002211 -0.092112 -0.174387 0.000000 0.995457 -0.095207
-0.009689 0.212815 -0.138246 0.666612 -0.571542 -0.478506
0.121774 0.352981 0.098812 0.005050 -0.937892 0.346890
0.018794 0.142966 -0.212177 -0.543930 -0.663891 0.513214
-0.006686 -0.095418 -0.076512 0.112180 0.956071 -0.270820
-0.103228 -0.300088 -0.002043 0.707107 0.000000 0.707107
-0.159291 -0.154402 0.176034 -0.969612 -0.089853 -0.227550
0.172621 0.117503 0.132409 -0.952438 0.301756 -0.042485
0.006689 0.166675 -0.133173 -0.120579 -0.991251 0.053684
-0.153299 -0.183467 0.027934 -0.676156 0.699991 0.229837
0.144555 -0.116483 0.177432 -0.000000 -1.000000 -0.000000
-0.148616 0.024941 0.018200 -0.956501 -0.000060 -0.291729
0.172340 -0.165451 0.116904 0.473800 -0.622701 0.622701
0.082326 -0.290785 -0.062779 0.372010 -0.234503 -0.898118
-0.093186 -0.147466 0.258972 -0.619339 0.151145 0.770438
0.154164 -0.025575 0.178755 -0.923851 -0.007852 -0.382673
-0.093996 -0.166255 0.249762 -0.654208 -0.657283 0.374154
0.014971 -0.067629 -0.131365 -0.455287 -0.774255 0.439594
-0.158828 0.109439 0.041757 0.210020 0.738299 -0.640941
-0.072628 0.192317 -0.025524 0.496014 0.126021 0.859121
-0.177385 -0.192256 0.090312 -0.798335 0.301106 -0.521532
-0.019393 0.073767 -0.110189 0.455291 0.731452 0.507630
-0.015358 -0.200305 -0.279221 0.335201 0.747394 0.573622
-0.155653 -0.047260 0.174357 0.354132 -0.293628 0.887904
-0.104763 -0.281487 -0.000042 0.793356 0.000000 0.608758
-0.034130 0.119461 0.271608 -0.395462 0.838739 0.374336
-0.061539 0.089211 0.259979 0.922532 -0.384930 0.027635
-0.002211 -0.076751 -0.152932 0.000000 -0.804149 0.594428
0.013078 0.105537 -0.239166 0.387089 0.254924 -0.886101
-0.004306 0.160449 -0.107013 0.000000 -0.830012 -0.557745
-0.020969 -0.130100 -0.232257 0.492275 -0.326635 0.806830
-0.085518 0.163898 -0.047850 0.446350 -0.450650 0.773102
0.158598 -0.154535 0.195649 0.816047 -0.073652 0.571504
0.176461 -0.155545 0.085395 0.651129 -0.196435 -0.733106
0.176461 -0.150980 0.084794 0.651131 0.000000 -0.758966
-0.024715 -0.109918 -0.123031 -0.593026 -0.661597 0.458923
0.184570 -0.199254 0.102433 -0.999990 -0.003462 0.002656
-0.029282 -0.156239 -0.183714 1.000000 0.000000 0.000000
0.182445 -0.196742 0.111809 0.908618 0.108090 0.403398
-0.095295 -0.157843 -0.051057 -0.710054 -0.295309 -0.639231
0.159080 -0.162316 0.176840 -0.815099 0.503293 0.286895
-0.072902 0.194441 -0.025999 0.465699 0.364002 0.806614
-0.026198 0.207376 -0.112386 -0.999903 -0.000492 0.013951
0.002252 -0.070327 -0.143212 0.117141 0.832621 -0.541314
-0.160033 -0.262284 0.009317 -0.784845 0.422719 -0.453130
0.035714 0.387538 0.070029 -0.236913 -0.949232 0.206957
-0.094129 -0.163101 0.253635 -0.659933 -0.521531 0.540827
-0.139014 0.147708 0.058266 0.923875 -0.000000 0.382695
-0.019623 0.215909 -0.148436 0.000000 0.258819 -0.965926
0.002572 -0.116337 -0.232616 -0.167868 -0.223069 0.960240
0.024470 0.203181 -0.112661 0.999890 0.000000 -0.014852
0.003760 -0.208630 -0.078764 0.108090 -0.403398 -0.908618
-0.015801 0.021428 -0.253408 -0.387037 0.037345 -0.921308
-0.093870 -0.153464 0.258577 -0.648757 -0.106876 0.753454
-0.038495 0.168705 0.260087 0.000000 1.000000 0.000000
0.043236 0.377067 0.043999 0.028119 0.935885 -0.351181
0.139534 -0.145683 0.205098 -0.014989 0.227924 0.973564
0.100253 -0.150980 0.254501 0.815986 0.000000 0.578072
-0.141805 -0.133256 0.008025 -0.190166 0.762650 -0.618225
0.014999 0.001277 -0.251627 -0.440536 0.044252 0.896643
-0.177385 -0.150980 0.088437 0.798335 0.000000 0.602213
-0.028632 0.142482 -0.180997 -0.967558 0.178649 -0.178649
0.024828 -0.189925 -0.266149 0.000000 0.992297 -0.123880
0.170797 -0.101781 0.079579 -0.991414 -0.007852 0.130528
0.018794 -0.174895 -0.284853 -0.546146 -0.190197 0.815812
0.014971 0.054391 -0.077199 -0.509180 0.433397 0.743574
-0.010076 -0.144690 -0.076808 0.476887 -0.197537 0.856480
-0.167975 0.111821 0.142758 -0.713688 -0.674796 -0.187881
0.022262 -0.135939 -0.192769 0.000000 0.579003 -0.815325
-0.166564 0.114515 0.149592 0.501917 -0.743878 -0.441276
0.016955 0.219199 -0.153503 0.000000 0.707107 -0.707107
0.022262 -0.109453 -0.187212 1.000000 -0.000000 -0.000000
-0.055474 0.196388 0.255309 -0.285532 0.665806 0.689329
-0.033212 0.370075 0.026233 0.213572 -0.850639 0.480418
-0.097160 -0.138507 -0.043070 -0.790335 0.536670 -0.295561
0.073975 0.072312 0.261174 0.141668 -0.066732 0.987662
0.009966 -0.227592 0.262892 -0.000000 -1.000000 -0.000000
-0.024103 0.171495 -0.118829 -0.890240 0.110517 -0.441882
0.045463 0.115947 0.267445 -0.340909 -0.903514 0.259698
0.002661 0.192388 -0.132584 0.000000 0.689456 0.724328
0.016955 0.217524 -0.154470 0.000000 -0.258819 0.965926
-0.019623 0.215909 -0.153289 0.000000 0.258819 0.965926
0.022262 -0.171491 -0.241686 1.000000 0.000000 0.000000
0.160211 -0.151289 0.193744 -0.866025 0.000000 -0.500001
-0.026683 0.140943 -0.210614 -0.593319 0.636863 -0.492319
0.184032 -0.146677 0.099949 -0.976888 -0.185114 0.106876
0.015234 0.219019 -0.147830 -1.000001 0.000000 0.000000
-0.002211 0.105291 -0.186450 0.000000 -0.740053 0.672549
-0.006628 0.269953 -0.183605 -0.567323 0.323888 -0.757127
0.083462 0.042062 0.252988 -0.862992 -0.163309 0.478095
-0.155805 -0.194952 0.008889 0.792572 -0.185114 0.581001
0.022262 -0.101205 -0.175882 -0.813149 -0.582019 -0.006467
-0.019201 0.189189 -0.162579 0.000000 0.318439 0.947943
0.002264 0.037564 -0.254931 0.112180 0.069992 -0.991220
0.092401 -0.116483 0.032581 -0.000000 -1.000000 -0.000000
0.107753 -0.268920 0.000601 0.793343 0.000000 -0.608774
-0.016104 0.204977 -0.117300 0.014538 -0.204491 0.978761
-0.006673 0.070601 -0.112386 0.117142 0.815884 0.566226
-0.028416 0.116568 0.273335 0.050940 -0.582177 0.811465
0.020224 0.159095 -0.105452 -0.885944 0.437964 -0.152616
-0.023818 0.331009 0.243115 -0.005213 0.937973 -0.346668
0.002264 -0.102029 -0.232621 -0.112470 0.161021 0.980522
0.006545 -0.219022 -0.068659 -0.227924 0.850626 0.473799
0.158643 0.073413 0.033393 -0.500992 0.322699 -0.803039
0.086305 0.136029 0.221810 0.608758 0.000000 0.793356
0.137508 -0.183454 0.199348 0.001688 -0.655133 -0.755511
-0.075547 -0.025494 0.257456 -0.841444 -0.170582 -0.512712
-0.151422 -0.043542 0.023569 -0.955179 0.032359 -0.294256
-0.023558 0.172078 -0.118577 0.013727 -0.407004 0.913323
0.001248 -0.130514 0.273525 0.000000 0.880633 0.473799
0.001248 0.148016 0.278433 0.000000 -0.081946 0.996637
-0.023216 0.037151 -0.249104 0.543800 -0.059112 0.837131
0.003732 -0.194952 -0.080351 -0.106876 -0.185114 0.976888
0.006689 0.221729 -0.149357 0.000000 0.966628 0.256184
0.022262 -0.128217 -0.187649 0.000000 0.525842 -0.850582
0.009763 -0.140381 -0.242795 -0.278496 -0.617333 0.735758
0.157787 -0.154493 0.196867 -0.770438 0.151145 -0.619339
-0.093487 -0.195567 -0.053756 -0.693747 0.194421 -0.693481
-0.089350 -0.189548 -0.054489 -0.454307 0.417630 -0.786886
0.023617 0.206361 -0.113250 0.999890 0.000000 -0.014852
0.086438 -0.059726 -0.016842 0.608774 0.000000 -0.793343
0.169349 0.115307 0.073469 0.035701 0.964121 -0.263050
0.048340 0.114992 0.269247 0.421767 0.881030 0.214239
0.143245 0.168705 0.181626 0.873356 0.000000 0.487083
-0.158097 -0.140617 0.021161 -0.389960 -0.566387 -0.726682
-0.002211 -0.045439 -0.088393 0.999899 -0.000000 0.000000
0.152066 -0.219022 0.183391 -0.524287 0.850625 -0.039513
-0.157262 -0.057922 0.033393 0.495531 -0.330498 -0.803256
0.125314 0.361718 0.092226 0.594945 0.802630 -0.042738
0.171160 0.121290 0.133235 -0.532288 -0.797922 -0.282825
-0.157963 -0.076407 0.164785 -0.952370 0.051216 0.300614
-0.163816 0.109201 0.058204 -0.965896 0.007920 -0.258810
-0.008128 -0.196742 -0.078764 -0.403398 0.108090 -0.908618
-0.172284 0.163898 0.102433 -0.892701 0.450650 0.000000
0.077015 -0.211303 -0.055438 0.286929 0.503310 0.815077
-0.159009 -0.146414 0.175284 -0.930448 0.196435 -0.309322
-0.080199 0.198007 -0.038638 0.329267 -0.752551 0.570307
0.007638 -0.205289 0.283927 -0.253898 0.194781 -0.947416
0.010971 -0.169990 -0.287171 -0.386986 -0.310777 0.868136
0.008112 -0.157843 -0.078764 0.295309 -0.295309 -0.908617
-0.011091 0.163236 -0.178865 -0.223665 0.958797 -0.175165
0.126951 -0.247143 0.223682 -0.639839 -0.591246 -0.490953
-0.001983 0.192398 -0.088653 0.000000 0.437096 -0.899415
-0.022971 0.022386 -0.249841 0.492255 -0.035222 0.869738
-0.072902 0.194441 -0.025999 0.465699 0.364002 0.806614
-0.002211 -0.172810 -0.175153 0.000000 0.760815 -0.648969
-0.152016 -0.201636 0.004644 -0.672596 -0.122605 -0.729782
-0.030839 -0.300088 0.040712 0.000000 1.000000 -0.000000
0.013721 -0.186782 -0.072780 -0.536670 -0.536670 0.651131
0.034751 0.399857 0.159390 -0.608111 -0.759226 0.231898
-0.154969 0.182898 0.146788 -0.011623 -0.999927 0.003300
0.179882 -0.189357 0.092536 -0.798334 -0.425830 0.425830
0.159190 0.091702 0.171421 -0.013675 -0.379312 -0.925168
0.167062 -0.090120 0.161036 0.948951 0.295457 0.110440
0.002264 0.142063 -0.112639 -0.112182 -0.560070 -0.820814
0.149000 -0.314639 0.102433 -1.000000 0.000000 0.000000
0.006647 -0.011618 -0.203955 -0.232973 -0.106000 -0.966689
0.173450 -0.146622 0.121563 0.562415 0.107904 0.819784
0.156842 0.199245 0.144124 0.445381 0.887352 0.119340
-0.174550 -0.109841 0.102433 -0.564607 -0.825360 0.000000
0.022833 0.198680 -0.117889 0.006696 0.892589 0.450822
0.159547 -0.076338 0.033653 -0.296444 -0.409052 -0.863017
0.127675 0.360390 0.100172 0.630491 0.775991 -0.017874
-0.133236 -0.210427 0.002442 0.075307 -0.463251 -0.883022
0.001248 0.125798 0.275361 0.000000 -0.967005 -0.254758
0.176461 -0.216292 0.097868 0.651129 -0.733106 -0.196435
0.042742 0.390276 0.182235 -0.266231 -0.904165 -0.334076
0.102973 -0.188890 -0.036017 0.608735 0.007862 -0.793335
0.079898 0.059339 0.258511 0.688584 0.116250 0.715778
0.161806 -0.199254 0.030102 -0.943378 0.000000 -0.331719
0.010624 -0.148467 0.283630 0.403398 0.108090 0.908618
-0.011507 -0.183467 -0.068659 -0.537122 0.699992 -0.470650
-0.027575 0.202769 -0.111073 0.013257 -0.450874 0.892489
-0.047504 0.116602 -0.060694 0.382680 -0.007854 0.923848
0.123347 -0.116483 0.224532 -0.793329 -0.007852 -0.608743
0.006647 0.003570 -0.205162 -0.232973 -0.047936 -0.971301
0.007080 0.115070 -0.167291 0.290072 -0.947559 0.134130
0.003389 -0.234641 -0.045037 -0.130538 0.000000 0.991443
-0.001983 0.250028 -0.178334 0.000000 -0.345640 -0.938367
0.146751 -0.163452 0.004025 0.295561 -0.536670 -0.790335
0.022262 -0.156930 -0.210929 0.000000 -0.723532 0.690291
0.129680 0.194441 0.176583 0.806614 -0.364002 0.465699
-0.010655 0.180024 -0.159290 1.000000 0.000000 0.000000
0.062172 -0.093312 0.266310 0.718327 -0.544189 0.433433
-0.015330 0.115200 -0.173010 -0.346261 -0.906544 0.241416
0.155269 -0.216292 0.018780 -0.662113 0.733105 0.155447
-0.002211 -0.070097 -0.189295 0.000000 0.350586 0.936531
0.076176 -0.060075 0.259205 0.951763 -0.306716 0.008492
-0.002211 -0.207527 -0.268438 0.000000 -0.991650 -0.128956
-0.026683 -0.109869 -0.193796 1.000000 0.000000 0.000000
-0.153929 -0.013363 0.181415 0.860012 -0.108125 0.498687
0.147606 0.186958 0.015010 0.858504 0.000000 -0.512807
-0.159307 -0.067667 0.036545 -0.623588 0.355922 0.696030
