0.007648 0.021788 0.111829 0.056681 0.698149 0.713705
-0.050085 0.002258 -0.111295 -0.008305 0.008316 -0.999931
-0.043894 0.033306 -0.103742 -0.386117 0.922439 0.004435
-0.013274 -0.022407 0.039935 -0.031340 -0.997859 0.057399
0.020814 0.024510 0.042932 0.136897 0.989244 0.051531
0.031904 0.016955 0.101506 0.685367 0.641815 0.344015
-0.053060 -0.009343 -0.110664 -0.599206 -0.116613 -0.792056
-0.026838 -0.007781 0.068189 -0.904312 -0.265919 0.333927
0.037813 0.011732 0.096152 0.856659 0.378152 0.350907
0.044395 0.008013 -0.060878 0.995088 0.087967 -0.045416
-0.014939 -0.024028 0.014494 -0.070011 -0.995985 0.055784
0.005113 0.016431 -0.110455 0.002691 -0.053010 -0.998590
0.035662 0.016501 0.094604 0.734872 0.588118 0.337757
0.044366 0.013428 0.016083 0.949273 0.313979 0.017274
0.045241 0.007234 -0.039113 0.995654 0.088727 -0.028300
-0.013260 -0.026376 -0.024919 -0.047563 -0.998234 0.035584
-0.021742 -0.024699 -0.009026 -0.126023 -0.990680 0.051677
0.010008 -0.020909 0.050714 0.078883 -0.995774 0.047033
-0.016965 -0.016544 0.105453 -0.451958 -0.582182 0.675869
0.013603 0.012638 0.118637 0.686050 0.664779 0.295642
0.039072 -0.000870 -0.110845 0.499001 0.031833 -0.866017
0.036434 -0.004814 -0.111752 0.115717 0.030344 -0.992819
-0.042899 0.009634 0.014393 -0.976480 0.159928 0.144603
0.019936 0.026097 0.091136 0.238803 0.959892 0.146901
0.001775 -0.028316 -0.053728 0.037413 -0.997683 0.056829
-0.050836 0.004404 -0.073750 -0.997322 0.067857 0.027297
-0.018990 -0.030153 -0.093778 -0.106828 -0.943120 0.314820
0.033174 0.023488 0.028647 0.202815 0.977158 0.063472
-0.026620 -0.008584 0.092424 -0.820843 -0.440850 -0.363136
-0.020222 0.032276 -0.049900 -0.100171 0.993447 0.055034
0.022021 -0.022851 0.004685 0.143733 -0.987979 0.056907
-0.045496 -0.001621 -0.000003 -0.988376 -0.090987 0.121800
-0.042628 -0.028090 -0.097699 -0.308789 -0.887408 0.342280
0.044618 0.012355 0.020636 0.957905 0.285437 0.030711
0.010325 0.024954 0.109134 0.098029 0.739337 0.666162
0.038140 -0.009494 -0.111174 0.478446 -0.087305 -0.873766
0.002635 0.022596 -0.111010 0.005070 -0.146667 -0.989173
0.023552 -0.023413 0.074794 0.240209 -0.946236 -0.216652
0.044604 -0.004986 0.040642 0.981889 -0.180484 0.057624
0.032334 -0.022701 -0.028556 0.221218 -0.974004 0.048783
-0.043617 0.003284 0.014359 -0.987878 0.059737 0.143281
-0.001117 0.027179 0.039797 0.068608 0.995150 0.070498
0.044227 0.014891 -0.019149 0.947289 0.320363 -0.003417
0.011981 -0.003979 0.138524 0.002898 -0.000257 0.999996
0.034514 0.017977 0.094217 0.671389 0.664732 0.327670
-0.039730 0.029682 -0.070391 -0.403510 0.912904 0.061524
-0.006793 0.027125 0.044811 0.031774 0.996757 0.073938
0.025386 0.024538 0.030871 0.141040 0.988607 0.052583
0.037336 -0.003341 -0.111556 0.262182 0.033147 -0.964449
0.013572 0.011155 0.137064 0.280116 0.398138 -0.873511
0.031844 0.008154 -0.111429 -0.156862 -0.063634 -0.985568
-0.039535 0.030127 -0.076731 -0.387189 0.920470 0.053094
0.037801 -0.020056 -0.018947 0.579214 -0.814542 0.032119
-0.047033 -0.018305 -0.089857 -0.876179 -0.474122 0.086708
-0.000106 0.034777 -0.084323 0.044478 0.998262 0.038651
0.026409 0.028371 -0.111248 0.136090 0.439109 -0.888067
-0.050367 -0.004407 -0.066587 -0.989487 -0.140318 0.035029
-0.022443 -0.021571 0.043058 -0.100706 -0.993292 0.056822
0.019687 -0.029311 -0.104238 0.176250 -0.982183 -0.065211
0.029573 -0.021377 0.079889 0.304878 -0.925515 0.224660
0.033620 0.025992 -0.018937 0.256813 0.965245 0.048461
-0.050924 -0.001228 -0.074430 -0.997481 -0.066063 0.025846
0.038366 0.003508 -0.111115 0.363575 -0.039237 -0.930738
-0.007650 -0.021702 0.051927 0.006745 -0.998692 0.050687
-0.050152 0.012173 -0.079126 -0.983706 0.177843 0.026365
0.039678 0.018291 0.074530 0.766626 0.559719 -0.314641
0.010216 -0.021970 0.102854 0.147365 -0.984159 0.098567
0.013703 -0.026404 -0.036596 0.109846 -0.992618 0.051406
0.045208 0.005060 0.041775 0.994624 0.086730 0.056570
0.043523 0.006069 -0.080999 0.996873 0.056413 -0.055329
0.041719 -0.011651 0.051093 0.874102 -0.479686 0.076470
0.002392 0.015974 0.118962 -0.195441 0.949918 0.243840
0.022897 0.000879 0.114657 0.588779 -0.066858 0.805524
-0.038685 0.027328 -0.026836 -0.507055 0.859557 0.063695
-0.033834 -0.030371 -0.106027 -0.108675 -0.985155 -0.132890
-0.029404 0.025663 0.037432 -0.414453 0.904393 0.101497
0.024343 0.023305 0.061698 0.140751 0.989089 0.043509
-0.011749 0.032398 -0.042301 -0.025954 0.997949 0.058516
-0.048978 -0.007908 -0.050545 -0.976789 -0.205007 0.062083
-0.009533 -0.000930 0.118653 -0.906489 -0.188676 0.377728
0.000268 -0.029206 -0.066212 0.028475 -0.997786 0.060105
-0.042694 -0.022441 -0.065255 -0.643544 -0.763638 0.052045
-0.053198 -0.006365 -0.095100 -0.765936 -0.108220 0.633743
-0.043743 -0.028101 -0.102440 -0.367196 -0.930031 0.014436
-0.004881 -0.027046 -0.029822 -0.012349 -0.998493 0.053477
-0.015360 0.030792 -0.016136 -0.050536 0.996950 0.059472
-0.016455 0.032498 -0.047842 -0.071796 0.995847 0.055988
0.027235 0.017058 -0.110736 -0.120571 -0.053171 -0.991280
0.040940 0.020024 0.014337 0.767825 0.640337 0.020336
-0.044740 0.022483 -0.041444 -0.854333 0.515376 0.067097
-0.043097 -0.023260 -0.082535 -0.651803 -0.756634 0.051553
-0.046690 0.025159 -0.093134 -0.738389 0.464973 0.488449
-0.003305 -0.028242 -0.050804 0.000806 -0.998246 0.059205
0.024057 -0.021970 0.014594 0.140183 -0.988127 0.062875
0.044143 0.014145 -0.038485 0.966641 0.255157 -0.022340
0.044685 0.003617 -0.059788 0.998965 0.020134 -0.040775
0.023310 0.025814 0.015422 0.144928 0.986816 0.072039
0.023552 -0.023413 0.074794 0.240209 -0.946236 -0.216652
-0.011576 -0.022587 0.037936 -0.029280 -0.996920 0.072759
0.022858 -0.019446 0.057420 0.115178 -0.992970 0.027298
0.042202 0.016704 0.036312 0.851229 0.519018 0.077654
-0.055563 0.010875 -0.100515 -0.991177 0.123111 0.049115
0.043713 0.002197 -0.079332 0.998259 -0.013961 -0.057309
0.029297 -0.023607 -0.033023 0.232555 -0.971445 0.047039
0.015867 -0.021763 0.029634 0.105505 -0.991498 0.076161
0.004152 0.028063 0.019704 0.099161 0.993109 0.062458
-0.033293 -0.021771 0.007888 -0.337888 -0.938673 0.068732
-0.003590 0.027780 0.033416 0.053072 0.996344 0.066945
-0.004270 0.034600 -0.077816 0.016539 0.998685 0.048521
0.038601 0.019971 0.047602 0.632233 0.772680 0.056986
0.034977 -0.023754 -0.074009 0.530971 -0.846716 0.033782
0.022433 -0.023984 -0.015357 0.174437 -0.983295 0.051987
0.016006 -0.024363 -0.006197 0.117008 -0.991162 0.062514
0.043138 0.016117 0.021287 0.897046 0.440789 0.031822
0.037903 0.018585 0.070927 0.712875 0.637058 -0.293200
0.006585 0.030093 -0.015923 0.100585 0.993068 0.060820
0.041576 0.020553 -0.040791 0.871972 0.489521 -0.005917
-0.017349 0.035817 -0.106556 0.023576 0.981806 -0.188416
-0.047624 0.003125 -0.018581 -0.993760 0.050235 0.099590
-0.016039 -0.024942 -0.003275 -0.085469 -0.994387 0.062359
0.024272 -0.025898 -0.056921 0.186806 -0.980714 0.057468
0.044763 0.009981 -0.045085 0.990341 0.136498 -0.024337
0.006463 0.004242 0.138446 -0.004507 0.004945 0.999978
0.029894 -0.023146 -0.026605 0.223801 -0.973400 0.049047
0.035054 0.018114 0.092848 0.673679 0.662583 0.327323
0.032957 -0.020439 0.013793 0.234220 -0.970962 0.048733
0.014577 -0.023643 0.007451 0.106292 -0.991907 0.069447
-0.029522 0.030524 -0.041162 -0.188294 0.980669 0.053239
0.033196 0.022654 0.043945 0.213849 0.975265 0.055923
-0.024452 -0.010215 0.090404 -0.781400 -0.458436 -0.423379
0.043353 0.016143 0.013991 0.905027 0.424809 0.021544
-0.047033 -0.018305 -0.089857 -0.876179 -0.474122 0.086708
0.000900 -0.024429 0.011222 0.041400 -0.997086 0.064081
0.021232 -0.027378 -0.072714 0.176137 -0.983053 0.050812
-0.040982 0.009638 0.026074 -0.971310 0.164411 0.171832
0.022505 0.003392 0.114961 0.658362 0.014513 0.752562
0.044895 -0.001617 -0.048795 0.996428 -0.077858 -0.032712
0.004953 -0.028872 -0.064193 0.062499 -0.995920 0.065091
-0.030897 0.027124 0.015055 -0.259357 0.963665 0.063911
0.038301 0.023839 -0.016898 0.590876 0.806339 0.026116
0.034632 0.026656 -0.038282 0.341122 0.938917 0.045504
0.044638 0.013344 0.004625 0.955532 0.294352 0.017776
-0.020344 0.028099 0.023987 -0.097400 0.993523 0.058522
0.009559 -0.024449 0.001989 0.088034 -0.994080 0.063680
0.036918 0.021075 0.047658 0.470920 0.880109 0.060359
0.046190 0.001378 0.011138 0.999507 -0.031119 0.004285
-0.021042 -0.024629 -0.006416 -0.123846 -0.990630 0.057569
0.013997 -0.022509 0.022415 0.102157 -0.991458 0.081090
-0.009514 0.009617 0.130804 -0.878938 0.462759 -0.115419
0.030458 -0.021141 0.010367 0.198913 -0.978629 0.052139
-0.004140 -0.002928 0.138435 -0.014107 0.015779 0.999776
0.018910 -0.026995 -0.059398 0.162837 -0.984675 0.062437
-0.030897 0.027124 0.015055 -0.259357 0.963665 0.063911
0.029078 -0.010285 0.109868 0.528823 -0.433072 0.729928
-0.022250 0.002064 0.108035 -0.598902 0.007188 0.800790
0.034657 0.006476 0.108072 0.862610 0.223992 0.453576
-0.029058 0.035925 -0.103006 -0.045440 0.998673 -0.024219
0.033335 0.021604 0.063066 0.336662 0.940792 0.039617
0.011249 -0.030124 -0.105578 0.075086 -0.990733 -0.113178
-0.040990 0.026798 -0.039474 -0.623479 0.779000 0.066586
-0.032764 0.011295 -0.110596 0.040193 0.023048 -0.998926
-0.000977 0.012698 0.131464 -0.323665 0.583757 0.744627
-0.041544 0.006443 0.025419 -0.979222 0.104628 0.173714
-0.018847 -0.021703 0.061435 -0.336858 -0.929944 0.147415
0.004219 -0.024567 0.074470 -0.044879 -0.996280 0.073568
-0.020536 -0.026585 -0.040357 -0.119318 -0.991101 0.059010
-0.007753 -0.023478 0.071561 -0.181319 -0.980849 0.071122
-0.045549 0.018591 -0.028606 -0.921156 0.379625 0.085768
-0.027637 -0.028205 -0.086709 -0.171336 -0.984905 0.024616
0.023411 -0.024254 -0.023146 0.173144 -0.982781 0.064522
0.011258 0.029391 -0.013126 0.121109 0.990767 0.060936
-0.004186 0.006241 -0.109941 -0.016330 -0.005543 -0.999851
0.017488 -0.028171 -0.076238 0.154383 -0.986887 0.047121
-0.030628 0.027488 0.010018 -0.196719 0.979075 0.052095
0.007360 0.035016 -0.106081 0.065975 0.987915 -0.140258
-0.048961 0.004479 -0.035714 -0.994890 0.071022 0.071768
0.028249 -0.023618 -0.027998 0.221378 -0.974026 0.047590
0.005113 0.016431 -0.110455 0.002691 -0.053010 -0.998590
0.022648 -0.002875 0.114294 0.520315 -0.169164 0.837052
0.030904 -0.024641 -0.109660 0.290063 -0.711137 -0.640428
-0.046883 0.022206 -0.074432 -0.897969 0.438473 0.037332
0.042030 -0.014927 -0.003717 0.846578 -0.531595 0.026698
-0.010477 0.009723 -0.109902 -0.001793 -0.022173 -0.999753
-0.011749 0.032398 -0.042301 -0.025954 0.997949 0.058516
-0.000736 0.026604 0.106745 -0.112457 0.904567 0.411231
-0.054966 0.003124 -0.109424 -0.768888 0.009548 -0.639312
-0.049741 0.003160 -0.046493 -0.997327 0.042428 0.059487
-0.000178 0.027030 0.103615 -0.051438 0.995096 0.084487
0.032936 0.029773 -0.105131 0.460784 0.887179 -0.024311
0.043297 0.008447 0.059869 0.980078 0.172743 0.098014
-0.007428 0.030257 -0.111735 -0.010896 0.164734 -0.986278
-0.042899 0.028303 -0.080954 -0.665704 0.745043 0.041836
0.000312 0.031541 -0.032204 0.062327 0.996382 0.057777
-0.045230 0.023521 -0.057661 -0.848088 0.526898 0.055900
0.030021 -0.022546 -0.014830 0.219242 -0.974463 0.048525
-0.018949 0.028924 0.011851 -0.079904 0.995159 0.057217
-0.020612 0.029334 0.001714 -0.088806 0.994386 0.057540
0.033335 0.021604 0.063066 0.336662 0.940792 0.039617
0.045173 0.010945 -0.023045 0.984106 0.176954 -0.014940
-0.036640 0.017523 0.037356 -0.900398 0.392095 0.188535
-0.002966 0.011550 0.131379 -0.174769 0.598906 0.781516
-0.001890 -0.023525 0.084400 -0.111576 -0.992039 0.058395
-0.002370 -0.021711 0.049668 0.027715 -0.997166 0.069947
-0.013102 -0.024908 0.000484 -0.064160 -0.996382 0.055729
0.038431 -0.019866 -0.097694 0.876213 -0.481470 -0.020924
-0.016162 -0.024415 0.006268 -0.079575 -0.994971 0.060830
0.037260 0.021442 0.039418 0.456037 0.887312 0.068605
0.005871 0.012832 0.134085 0.190981 0.979784 0.059587
0.010351 0.032259 -0.057170 0.115685 0.990963 0.067897
0.036718 0.024288 -0.006490 0.435533 0.898773 0.050189
-0.049907 -0.009619 -0.083348 -0.973952 -0.225510 0.023730
0.032163 -0.022564 -0.025021 0.243983 -0.968305 0.053458
0.016826 -0.000150 0.136950 0.678246 -0.171747 -0.714483
-0.006178 0.032404 -0.042173 0.015034 0.998127 0.059305
0.037812 -0.018529 0.016525 0.529212 -0.847554 0.039841
-0.024909 -0.024016 -0.004381 -0.131160 -0.990168 0.048624
0.009008 0.015322 0.119145 0.314809 0.945830 0.079381
0.016218 0.026024 0.097604 0.225216 0.964101 0.140666
-0.024661 0.017398 0.101553 -0.724103 0.657773 0.207385
0.020861 -0.025577 -0.039455 0.153357 -0.986534 0.056846
-0.025542 0.035194 -0.108294 -0.022294 0.885848 -0.463439
-0.012862 0.028502 0.024564 -0.025522 0.998003 0.057789
0.017720 0.009134 0.127755 0.902459 0.430617 0.011680
0.016595 -0.005960 0.120236 0.746440 -0.494638 -0.445151
-0.007251 0.031693 -0.029471 0.014822 0.998289 0.056571
-0.042017 -0.022098 -0.054054 -0.625875 -0.776724 0.070573
0.042867 0.011210 0.057881 0.950922 0.291726 0.103164
-0.016926 0.028569 0.019897 -0.056899 0.996675 0.058324
0.035574 0.027551 -0.069639 0.533100 0.845313 0.035368
-0.046002 0.021233 -0.111845 -0.004817 -0.001689 -0.999987
-0.010880 0.026438 0.053993 -0.003549 0.996032 0.088922
0.009697 0.029953 -0.019403 0.121369 0.991059 0.055417
-0.011373 0.026762 -0.111719 -0.015993 -0.101746 -0.994682
-0.006365 -0.023083 0.032544 0.009350 -0.997246 0.073578
-0.024141 -0.008833 0.088208 -0.852718 -0.429462 -0.297378
0.011556 -0.025007 -0.008512 0.096374 -0.993412 0.062010
-0.024474 0.024737 0.058331 -0.545942 0.783599 0.296513
0.001187 0.012717 0.132602 -0.222246 0.878192 0.423539
0.031662 -0.008477 0.108250 0.734702 -0.486876 0.472403
-0.048314 0.030638 -0.106623 -0.689095 0.705354 -0.166205
0.040578 -0.013079 -0.105083 0.971104 -0.227974 -0.070607
0.003175 0.034764 -0.091050 0.041584 0.984337 0.171322
-0.023340 0.019516 -0.110537 -0.006176 -0.099055 -0.995063
-0.017784 0.034386 -0.083430 -0.086250 0.995317 0.043638
-0.015483 -0.022743 0.061409 -0.139483 -0.987978 -0.066661
-0.048339 0.010730 -0.036343 -0.982629 0.171940 0.069841
0.042342 0.012358 -0.092532 0.989948 0.130150 -0.055346
-0.008811 -0.025493 -0.005348 -0.039062 -0.997200 0.063772
-0.024281 0.013809 0.074488 -0.894098 0.380512 0.236219
0.009273 -0.023802 0.069042 0.200188 -0.814339 -0.544772
0.034138 0.025727 -0.016377 0.271752 0.961108 0.049226
0.027560 -0.023067 -0.014430 0.193674 -0.979570 0.054158
0.032255 0.013278 -0.111712 -0.146125 -0.015598 -0.989143
-0.015333 0.003966 0.113710 -0.735984 0.083608 0.671817
0.015447 -0.020434 0.066564 0.180095 -0.909547 -0.374554
-0.044425 0.024947 -0.060142 -0.812967 0.578932 0.062622
-0.003439 -0.029250 -0.065750 0.005524 -0.997993 0.063088
-0.007137 -0.007525 0.119991 -0.657188 -0.616750 -0.433270
-0.047485 -0.002604 -0.019328 -0.989741 -0.106769 0.094933
0.002866 0.017554 0.124062 -0.074425 0.997226 -0.001459
0.029189 0.010701 -0.111033 -0.144393 0.009880 -0.989471
-0.024909 -0.024016 -0.004381 -0.131160 -0.990168 0.048624
0.018324 -0.027822 -0.071806 0.159064 -0.986010 0.049824
0.010557 -0.027048 -0.041950 0.094808 -0.993897 0.056401
0.041874 -0.015344 -0.008894 0.839373 -0.543469 0.009755
-0.056137 -0.000954 -0.104345 -0.999178 -0.040370 -0.003621
0.036378 0.012554 -0.111761 0.112294 0.032361 -0.993148
-0.050680 -0.004668 -0.078538 -0.990927 -0.131495 0.027809
0.043353 0.016143 0.013991 0.905027 0.424809 0.021544
0.021923 -0.024275 -0.018293 0.164308 -0.985244 0.047934
-0.010446 -0.003033 0.134781 -0.731385 -0.674654 0.099590
0.002062 -0.029027 -0.064342 0.039560 -0.997018 0.066263
-0.030973 -0.019267 0.040969 -0.579535 -0.804234 0.131706
-0.030778 0.031383 -0.061847 -0.194215 0.979331 0.056483
0.033823 0.026507 -0.110565 0.340676 0.489004 -0.803004
0.013224 0.026884 0.095441 0.160180 0.980377 0.114903
0.036505 0.013223 0.097451 0.815055 0.449891 0.365081
0.009607 0.013318 0.138546 0.099878 0.288859 0.952148
-0.021931 -0.027662 -0.061135 -0.134997 -0.988550 0.067409
-0.054349 0.017187 -0.098704 -0.931831 0.235424 0.276163
0.033606 0.021787 0.058822 0.307053 0.949073 0.070555
0.023242 0.017642 0.110842 0.298746 0.405178 0.864050
0.018775 0.032635 -0.083882 0.173241 0.984185 0.036981
0.034860 -0.003029 0.106971 0.856407 -0.263966 0.443721
-0.013751 0.026871 0.048839 -0.021062 0.997215 0.071542
-0.017981 -0.023756 0.015387 -0.092667 -0.993977 0.058496
-0.007702 -0.024228 0.016101 -0.007112 -0.997629 0.068448
-0.009060 0.028532 0.065458 -0.137242 0.990118 0.028842
0.030413 0.030906 -0.103472 0.376813 0.926286 0.002421
0.043127 0.014410 0.040067 0.914970 0.397819 0.067605
0.006957 0.027532 0.095940 0.059444 0.994645 0.084548
-0.007073 -0.024660 0.009186 -0.016116 -0.997874 0.063151
-0.023264 -0.030994 -0.104799 -0.016896 -0.997337 -0.070944
0.038995 -0.019606 -0.072451 0.841974 -0.539397 -0.011423
-0.025451 -0.018093 0.060118 -0.678022 -0.622811 0.390375
-0.026350 0.001321 0.086925 -0.949889 -0.014750 -0.312239
-0.008799 0.032992 -0.051267 -0.010358 0.998210 0.058896
0.028648 0.028953 -0.052862 0.200692 0.978213 0.053120
0.000544 -0.021059 0.060633 0.056712 -0.997962 -0.029248
0.025372 0.030414 -0.065496 0.199593 0.977993 0.060771
0.045635 0.004503 0.032125 0.997405 0.066709 0.027079
0.005685 -0.027072 -0.035948 0.061920 -0.996992 0.046608
0.004553 0.030061 -0.012328 0.091579 0.994010 0.059637
-0.039184 -0.029286 -0.098576 -0.228557 -0.949147 0.216521
-0.000551 0.034882 -0.090051 0.034209 0.994708 0.096882
-0.020470 -0.030926 -0.106152 -0.011880 -0.987169 -0.159237
0.016826 -0.000150 0.136950 0.678246 -0.171747 -0.714483
-0.040886 0.016285 -0.110811 0.105524 -0.029241 -0.993987
-0.044465 -0.027788 -0.099149 -0.392686 -0.902659 0.176083
0.043974 0.002864 0.058630 0.995279 0.010655 0.096470
0.021065 0.031090 -0.063288 0.177498 0.981915 0.065855
-0.002035 0.028934 0.072116 -0.084989 0.994491 0.061357
-0.046340 -0.018763 -0.077335 -0.868205 -0.494589 0.040028
0.016961 -0.005921 0.124805 0.857417 -0.514052 -0.024233
0.002341 0.029243 0.072067 -0.052305 0.996709 0.061929
-0.042869 0.020760 -0.012157 -0.879295 0.466567 0.095689
0.040501 0.002149 0.095144 0.937627 0.002776 0.347633
-0.010129 0.000151 0.138336 -0.567237 -0.051073 0.821970
0.001500 0.001130 0.138445 -0.001915 0.002951 0.999994
0.007557 -0.024148 0.009135 0.081293 -0.994469 0.066508
-0.016284 0.036028 -0.102564 0.009069 0.998718 -0.049809
-0.047639 0.005729 -0.111309 0.080398 -0.088643 -0.992813
-0.017013 0.032367 -0.111112 -0.013718 0.409661 -0.912134
-0.033843 0.030644 -0.060725 -0.206691 0.976779 0.056399
0.036951 0.022769 0.021308 0.406689 0.912308 0.047936
0.034794 0.028056 -0.070576 0.463115 0.885158 0.044944
0.044000 0.012838 -0.053170 0.979086 0.200598 -0.033938
0.044533 -0.006888 0.033077 0.968477 -0.246654 0.034831
0.013699 -0.024448 0.076023 0.043943 -0.992723 0.112114
-0.051082 -0.002585 -0.088765 -0.995422 -0.093377 0.020393
-0.045147 0.026106 -0.088798 -0.802302 0.594777 0.050519
-0.044582 -0.009313 -0.003201 -0.956911 -0.268640 0.110243
-0.039044 0.032228 -0.110090 -0.104055 0.640269 -0.761071
-0.048163 0.020551 -0.090546 -0.922573 0.356962 0.146414
-0.012809 -0.020499 0.080299 -0.573899 -0.808912 0.127678
-0.030382 0.028782 -0.012564 -0.179260 0.982369 0.053085
-0.005001 -0.007679 0.137276 -0.560791 -0.577441 -0.593359
0.041235 -0.013181 -0.089529 0.963355 -0.265436 -0.038605
-0.006330 -0.009127 0.128709 -0.672360 -0.731399 0.113965
0.034460 0.028872 -0.104816 0.539906 0.841293 -0.026993
0.037801 -0.020056 -0.018947 0.579214 -0.814542 0.032119
0.014193 0.026611 0.023441 0.136309 0.988802 0.060752
-0.038781 -0.022020 -0.026121 -0.488279 -0.869544 0.073998
-0.023973 0.029451 -0.006300 -0.123670 0.990695 0.056826
0.001911 -0.010919 0.119037 -0.131949 -0.974385 0.182111
-0.003770 -0.020604 0.107823 -0.199689 -0.710619 0.674644
0.008592 -0.003146 0.138535 -0.004421 0.006129 0.999971
0.021328 0.024292 0.099155 0.331957 0.924449 0.187610
0.042260 0.011355 0.063749 0.946583 0.298244 0.122606
0.043869 -0.007803 0.042270 0.956469 -0.285051 0.062545
0.015773 0.034429 -0.094005 0.156789 0.987290 0.026005
-0.024233 -0.007042 0.085265 -0.925022 -0.354198 -0.137397
-0.007949 -0.021997 0.061127 0.138370 -0.898775 -0.416002
0.005426 0.032258 -0.049488 0.088430 0.993596 0.070330
0.008742 -0.012322 0.125099 0.312540 -0.949903 0.001744
-0.047147 0.017858 -0.045442 -0.937837 0.342376 0.056922
0.003538 -0.024555 0.007331 0.054738 -0.996417 0.064474
0.014722 -0.019519 0.109277 0.197535 -0.720240 0.665007
-0.029421 0.010070 0.062906 -0.906382 0.166243 0.388374
0.042751 0.017618 0.008762 0.869946 0.492594 0.023374
-0.038806 0.011271 0.035880 -0.959564 0.202695 0.195325
0.037597 0.021998 0.028584 0.494862 0.867467 0.051111
-0.028106 0.032021 -0.064247 -0.165638 0.984349 0.060181
0.030464 0.022491 0.058107 0.185769 0.981698 0.041952
-0.024930 -0.029187 -0.093302 -0.087362 -0.952635 0.291298
-0.010452 -0.028566 -0.058400 -0.052257 -0.996096 0.071147
-0.027559 -0.019273 0.053810 -0.558495 -0.793202 0.242722
0.037608 0.021313 0.038804 0.528620 0.845887 0.070962
0.010351 0.032259 -0.057170 0.115685 0.990963 0.067897
0.014845 0.026254 0.027499 0.137079 0.988368 0.065863
0.005386 -0.018999 -0.111316 0.009985 0.164121 -0.986390
0.037553 0.021823 0.076773 0.635024 0.745194 -0.203544
-0.018639 0.033451 -0.067452 -0.095640 0.993753 0.057521
-0.043418 0.022320 -0.025603 -0.840381 0.535210 0.085496
-0.048516 -0.025534 -0.105462 -0.669481 -0.737986 -0.084682
0.028306 -0.022072 0.001231 0.182976 -0.981280 0.060085
-0.048110 0.008590 -0.029201 -0.988904 0.122413 0.084169
-0.011936 -0.004622 0.116386 -0.724794 -0.321411 0.609400
-0.026643 0.027073 0.028945 -0.162003 0.985311 0.054006
-0.031018 -0.004636 0.059924 -0.900617 -0.131840 0.414135
0.028295 0.026879 -0.015630 0.178644 0.982410 0.054384
-0.045473 0.022423 -0.111842 0.019813 0.003247 -0.999798
0.017034 0.014794 -0.110355 -0.004509 -0.011065 -0.999929
0.037297 0.023302 0.008425 0.461384 0.886158 0.042997
0.014393 0.034444 -0.102644 0.123086 0.992204 -0.019529
-0.008676 0.011288 0.135298 -0.749377 0.645330 0.148266
-0.006126 -0.002885 0.132027 -0.182025 -0.878244 0.442215
-0.010337 0.030731 -0.012830 -0.009444 0.998106 0.060784
-0.027434 -0.024934 -0.027573 -0.162271 -0.985016 0.058401
0.044238 -0.008347 -0.039505 0.977535 -0.209369 -0.024302
0.022110 0.025219 0.027338 0.141141 0.987747 0.066590
0.003964 0.033949 -0.072737 0.076436 0.995351 0.058595
-0.026444 -0.027899 -0.076214 -0.167265 -0.984469 0.053320
0.040304 -0.015451 -0.095660 0.950633 -0.308484 -0.033680
0.036423 -0.022569 -0.066423 0.620268 -0.783931 0.026848
0.018547 0.024897 0.041417 0.135031 0.989703 0.047474
-0.013150 0.028629 0.021961 -0.027413 0.998335 0.050755
-0.013879 0.012805 0.111847 -0.568613 0.410393 0.712921
0.045757 0.004964 -0.024622 0.998784 0.043640 -0.022937
-0.014232 -0.019156 0.104690 -0.416361 -0.799084 0.433715
0.021129 0.029585 -0.040479 0.165951 0.983952 0.065559
0.043190 -0.006278 -0.077224 0.988825 -0.144114 -0.038173
0.035137 -0.021344 -0.015921 0.360397 -0.931873 0.041562
0.043343 0.010160 0.083270 0.916529 0.251211 0.311237
0.036582 0.025410 -0.029464 0.451787 0.891605 0.030480
-0.050345 0.002367 -0.057001 -0.998158 0.037742 0.047496
0.030400 0.030137 -0.108584 0.332378 0.822934 -0.460765
-0.045150 -0.019264 -0.061423 -0.827292 -0.558987 0.055865
0.003381 0.025611 0.059737 0.064196 0.996909 0.045292
-0.047236 0.021048 -0.070670 -0.912137 0.407290 0.046051
0.029245 -0.000145 0.111730 0.333381 -0.047004 0.941620
-0.042992 -0.022264 -0.067371 -0.655830 -0.753259 0.049873
-0.029241 0.010314 0.097974 -0.904594 0.392086 -0.167268
0.022907 -0.026769 -0.067481 0.177510 -0.982818 0.050585
0.037495 0.022895 0.014342 0.478830 0.876144 0.055630
0.016765 -0.020886 -0.111853 -0.021638 0.121384 -0.992370
0.045173 0.010945 -0.023045 0.984106 0.176954 -0.014940
-0.006588 0.030165 -0.003436 0.016627 0.998116 0.059056
0.009128 0.012212 0.132116 0.375295 0.738517 0.560131
-0.046392 -0.008319 -0.017881 -0.971230 -0.219138 0.093227
0.045405 0.010447 -0.001060 0.981853 0.189571 0.005228
0.023084 0.032454 -0.107977 0.187252 0.900026 -0.393560
-0.014855 0.023910 0.088128 -0.564587 0.814876 -0.131218
-0.052538 -0.017289 -0.108629 -0.807018 -0.313504 -0.500436
-0.001264 -0.014058 0.116032 -0.270816 -0.856920 0.438574
0.018750 0.001131 -0.110569 -0.034943 0.000667 -0.999389
0.044006 -0.000649 0.057549 0.993861 -0.070047 0.085636
-0.006638 0.023082 0.108417 -0.263413 0.582843 0.768705
-0.047865 -0.015566 -0.076803 -0.922742 -0.383754 0.035778
-0.002672 0.017668 -0.110482 -0.009497 -0.087823 -0.996091
0.013966 0.028109 0.083465 0.103823 0.988484 0.110096
-0.023051 0.018801 0.099383 -0.652262 0.757746 -0.019357
0.033753 0.012685 0.104282 0.803054 0.461960 0.376428
0.017184 -0.023989 -0.002352 0.123089 -0.990164 0.066519
0.012420 -0.020653 0.052210 0.088928 -0.994624 0.053047
-0.012502 -0.007245 0.113790 -0.651486 -0.421311 0.630922
0.004295 0.002792 0.138469 -0.000010 0.000532 1.000000
-0.001411 -0.026824 -0.026031 0.019348 -0.998264 0.055628
0.037283 0.005315 -0.111467 0.197957 -0.040536 -0.979372
0.036608 -0.018037 0.080263 0.564066 -0.782037 0.265044
0.045430 -0.000199 -0.034083 0.997728 -0.062445 -0.025287
0.041549 0.010074 -0.107609 0.955090 0.091615 -0.281799
-0.035551 0.028481 -0.025942 -0.280943 0.958316 0.051970
0.043599 0.004834 0.085889 0.945999 0.108087 0.305621
0.043599 0.004834 0.085889 0.945999 0.108087 0.305621
0.043679 0.014116 0.030595 0.933199 0.357718 0.034313
-0.044858 -0.014870 -0.025428 -0.899687 -0.428544 0.083149
0.045352 -0.005732 0.012753 0.979451 -0.201203 0.013878
-0.024902 0.029527 -0.111522 -0.022507 0.096689 -0.995060
-0.013860 0.026248 0.056975 0.045421 0.991818 -0.119306
0.006586 -0.010218 -0.110659 0.017227 0.042338 -0.998955
-0.008811 -0.025493 -0.005348 -0.039062 -0.997200 0.063772
0.045771 0.007335 0.015976 0.988304 0.151835 0.014168
0.025081 0.023624 0.095457 0.373165 0.902207 0.216266
-0.009661 0.016699 0.112223 -0.476294 0.586702 0.654924
0.014576 -0.008811 0.123779 0.690526 -0.722876 -0.024984
0.042640 -0.012527 0.026452 0.875566 -0.481743 0.036148
0.010234 -0.011782 0.118221 0.171500 -0.552733 0.815520
-0.011198 -0.026645 -0.026472 -0.064935 -0.996207 0.057927
0.009905 0.025521 0.065491 0.192640 0.879187 -0.435799
-0.030683 0.032255 -0.077400 -0.198131 0.978889 0.050203
-0.030149 -0.023790 -0.014857 -0.181723 -0.981778 0.055579
0.022703 -0.025624 -0.046629 0.179459 -0.982456 0.050741
0.033197 -0.024305 -0.064993 0.350138 -0.935543 0.046506
0.035911 -0.023246 -0.098158 0.664639 -0.747080 -0.011247
0.034983 0.021460 0.055811 0.390220 0.918654 0.061664
0.001489 0.023192 0.110293 -0.093124 0.663340 0.742502
0.045051 0.008020 -0.043226 0.994271 0.102197 -0.031304
-0.017160 0.029166 0.009875 -0.063046 0.996406 0.056565
-0.025250 -0.024962 -0.022264 -0.146375 -0.987856 0.052096
0.031382 0.029896 -0.081643 0.301751 0.952749 0.034873
0.014711 -0.028603 -0.076924 0.135453 -0.989819 0.043711
-0.039194 0.008218 0.036561 -0.970750 0.132205 0.200417
-0.013369 -0.024445 0.008874 -0.055987 -0.996716 0.058503
-0.011667 0.002466 0.118127 -0.531339 0.037063 0.846348
0.042842 -0.008825 -0.075606 0.980104 -0.193686 -0.043376
0.041924 -0.010449 -0.088451 0.978335 -0.202312 -0.043944
0.043570 0.003796 -0.081853 0.998287 0.014477 -0.056691
-0.042424 0.027098 -0.058477 -0.660979 0.747033 0.071054
0.045560 0.002779 0.035858 0.998477 0.017472 0.052326
-0.001841 -0.029631 -0.109298 0.022076 -0.823071 -0.567510
-0.049658 -0.003048 -0.048696 -0.991848 -0.112667 0.059524
-0.022520 -0.001336 0.107568 -0.584325 -0.114054 0.803465
-0.016020 -0.021488 0.053798 -0.041591 -0.998076 0.045975
0.039442 0.021828 0.008970 0.647540 0.760897 0.041564
0.021713 0.014720 0.112553 0.356104 0.356164 0.863908
-0.000438 0.034430 -0.076542 0.044851 0.997596 0.052823
0.042659 -0.002036 -0.093359 0.996296 -0.053665 -0.067195
-0.021147 -0.028306 -0.069461 -0.131006 -0.989625 0.058996
0.008114 0.032259 -0.053357 0.103442 0.992584 0.063852
-0.007213 -0.012158 -0.110568 -0.011705 0.095984 -0.995314
-0.022641 0.032969 -0.066671 -0.126178 0.990415 0.056193
0.039913 0.023050 -0.045892 0.783084 0.621849 0.009173
-0.024580 0.026393 0.045068 -0.170549 0.982339 0.076964
0.006174 0.017377 0.120773 0.118884 0.933518 -0.338247
-0.009533 -0.000930 0.118653 -0.906489 -0.188676 0.377728
0.041917 0.012490 -0.099926 0.991662 0.117416 -0.053103
0.008896 -0.025766 -0.016797 0.079780 -0.995315 0.054616
0.030100 0.024065 0.072241 0.316020 0.849384 -0.422703
-0.022535 -0.024028 0.000619 -0.121904 -0.990919 0.056731
-0.009050 -0.008698 -0.110235 -0.020284 0.067170 -0.997535
-0.013295 -0.023193 0.062413 -0.156516 -0.980345 -0.120107
0.000800 0.027658 0.030670 0.081452 0.994818 0.060849
-0.012502 -0.007245 0.113790 -0.651486 -0.421311 0.630922
-0.003998 0.026533 0.052275 0.036461 0.996600 0.073879
0.015235 -0.008027 0.120407 0.668005 -0.604015 -0.434667
0.033165 -0.022887 -0.035229 0.270352 -0.961332 0.052447
0.034632 0.026656 -0.038282 0.341122 0.938917 0.045504
-0.046712 0.016034 -0.031133 -0.952258 0.294316 0.081139
-0.041433 0.022629 -0.009671 -0.805045 0.585420 0.095841
0.026984 0.026739 -0.008660 0.173663 0.983212 0.055987
-0.048489 -0.002079 -0.030107 -0.991847 -0.100173 0.078769
-0.017524 -0.024607 -0.000072 -0.086177 -0.994527 0.059070
0.009425 0.034210 -0.089167 0.104245 0.988255 0.111737
-0.012579 0.030679 -0.012716 -0.028781 0.997750 0.060553
0.045773 -0.003328 0.011072 0.990877 -0.134393 0.010085
0.037100 0.019393 0.064290 0.635132 0.764799 0.108119
0.042680 -0.013374 -0.043035 0.932284 -0.361506 -0.012663
0.002883 -0.015156 0.114911 -0.068277 -0.915039 0.397544
-0.035551 -0.022852 -0.018979 -0.296281 -0.953070 0.062251
0.012745 0.025228 0.050054 0.114865 0.992255 0.047278
-0.046510 -0.013382 -0.037352 -0.929458 -0.363704 0.061859
0.045482 -0.004695 0.016543 0.983990 -0.177431 0.016814
0.009659 0.016605 0.128873 0.371468 0.908514 0.191346
-0.007392 0.026054 0.058805 0.057468 0.989053 -0.135912
0.044895 -0.001617 -0.048795 0.996428 -0.077858 -0.032712
-0.051431 0.017721 -0.111075 -0.456655 0.112588 -0.882491
-0.008340 -0.003805 0.134920 -0.045435 -0.997345 -0.056903
-0.017376 -0.021384 0.057110 0.009552 -0.978368 -0.206652
0.044468 -0.008219 -0.031751 0.975989 -0.216685 -0.022189
-0.020477 0.035316 -0.108215 0.009323 0.883360 -0.468602
-0.001647 0.034270 -0.109518 0.003170 0.790175 -0.612874
-0.046101 0.006703 -0.006821 -0.988058 0.106304 0.111540
0.028433 -0.021397 0.012826 0.174654 -0.983313 0.050915
0.017746 0.009093 0.126467 0.892045 0.451632 -0.016854
-0.011908 0.027749 0.061053 0.039860 0.930550 -0.363990
0.010665 0.033139 -0.109894 0.105525 0.719060 -0.686889
-0.042922 -0.028486 -0.105883 -0.324460 -0.941406 -0.092094
0.030324 -0.011354 0.106721 0.696174 -0.607496 0.382479
0.029834 -0.025976 -0.082474 0.228354 -0.972432 0.047235
-0.001844 -0.031366 -0.095529 0.015810 -0.995955 0.088454
0.031402 0.019686 0.096646 0.584668 0.753393 0.300937
-0.009378 -0.024406 0.013684 -0.023139 -0.998172 0.055828
-0.003158 0.031262 -0.024127 0.041006 0.997611 0.055599
0.043873 0.014897 -0.041426 0.961989 0.272054 -0.023747
-0.039734 0.005231 0.035494 -0.976116 0.083213 0.200680
0.035980 -0.023264 -0.086581 0.653614 -0.756805 0.005907
-0.038770 -0.007817 -0.110593 0.060605 -0.026987 -0.997797
-0.044465 -0.027788 -0.099149 -0.392686 -0.902659 0.176083
-0.021013 -0.027083 -0.050746 -0.124591 -0.990542 0.057480
0.044253 -0.006212 -0.052536 0.984512 -0.171511 -0.036336
0.017672 0.027085 0.009317 0.142991 0.987283 0.069464
-0.050345 0.002367 -0.057001 -0.998158 0.037742 0.047496
0.041467 -0.011056 0.074571 0.865683 -0.406166 -0.292613
-0.006102 -0.028697 -0.110399 0.003689 -0.659600 -0.751608
0.013220 0.025652 0.105294 0.227013 0.963107 0.144533
0.011374 -0.001076 -0.110348 -0.029930 0.004589 -0.999541
-0.049153 0.001839 -0.036206 -0.997229 0.014915 0.072878
-0.025628 0.008992 0.074869 -0.957646 0.197747 0.209307
-0.011339 0.028260 0.063866 -0.144113 0.989460 -0.014169
-0.019955 0.029234 0.004668 -0.086280 0.994866 0.052886
0.042126 0.008808 0.069647 0.968696 0.231781 -0.088914
0.001308 0.031404 -0.111487 -0.000798 0.348169 -0.937432
0.009964 0.029673 -0.015052 0.114627 0.991374 0.063552
0.045807 0.002077 -0.024535 0.999447 -0.023666 -0.023355
-0.010886 0.005539 0.125491 -0.977172 0.211897 -0.015345
-0.042992 -0.022264 -0.067371 -0.655830 -0.753259 0.049873
-0.055900 -0.004083 -0.106743 -0.980949 -0.075451 -0.179016
-0.047162 -0.017515 -0.111711 -0.140000 -0.065837 -0.987960
0.022083 0.027169 -0.002169 0.154690 0.985998 0.062287
0.025400 -0.021130 0.071884 0.267312 -0.824661 -0.498475
0.040144 -0.016433 -0.090215 0.932731 -0.359371 -0.029410
-0.029199 0.022689 0.053684 -0.691773 0.643079 0.328481
-0.005853 0.029095 0.014337 0.029162 0.997692 0.061320
0.005289 -0.029913 -0.083337 0.066959 -0.997532 0.021129
0.039845 -0.016197 -0.101932 0.948732 -0.313919 -0.036897
-0.024973 0.009078 0.084341 -0.961537 0.243331 -0.127422
0.007462 0.018471 0.117539 0.120847 0.762443 0.635670
0.039294 0.023246 -0.021593 0.663229 0.747988 0.025325
-0.049165 -0.000453 -0.037269 -0.995762 -0.062248 0.067695
0.044131 0.011269 0.041238 0.965103 0.252297 0.070162
0.036423 0.027384 -0.100692 0.706376 0.707804 -0.006748
-0.010978 -0.025808 -0.011963 -0.052376 -0.996927 0.058255
-0.006686 0.014626 0.117751 -0.411168 0.532710 0.739703
0.008906 0.028253 0.009235 0.116146 0.991024 0.066195
0.038004 0.024913 -0.040780 0.622196 0.782440 0.025688
-0.016681 -0.024535 0.003645 -0.085449 -0.995110 0.049534
0.016961 -0.005921 0.124805 0.857417 -0.514052 -0.024233
-0.024824 -0.025469 -0.030031 -0.137304 -0.989439 0.046458
0.018809 0.026680 0.012639 0.142882 0.987059 0.072794
0.033346 0.026513 -0.028055 0.261379 0.963757 0.053424
0.042806 0.017402 0.011107 0.877263 0.479420 0.023772
-0.037294 0.022182 0.020069 -0.786986 0.600687 0.140814
0.027953 0.022986 0.056788 0.150375 0.988070 0.033233
-0.049536 -0.007334 -0.058621 -0.980466 -0.190682 0.048226
0.035907 0.026193 -0.040071 0.450931 0.892024 0.030883
0.040289 0.020580 0.017678 0.726293 0.685778 0.046969
0.026314 0.024186 0.034620 0.134623 0.989153 0.058764
-0.001491 -0.029043 -0.063063 0.018554 -0.997476 0.068538
0.042031 0.002882 -0.106303 0.980157 -0.010242 -0.197956
0.021796 -0.023120 0.079885 0.151949 -0.974560 0.164758
0.042417 -0.006163 0.064428 0.965476 -0.217089 0.143972
0.002784 0.025782 0.063174 0.136859 0.920724 -0.365427
-0.002506 -0.026656 -0.022733 0.008718 -0.998694 0.050340
0.035532 0.026532 -0.043488 0.427270 0.903489 0.033882
-0.056193 0.000989 -0.101117 -0.999053 -0.000225 0.043500
-0.041267 -0.026861 -0.110161 -0.174899 -0.629134 -0.757364
-0.049680 0.011094 -0.060878 -0.983392 0.174942 0.048317
0.044533 -0.006888 0.033077 0.968477 -0.246654 0.034831
0.001345 -0.007648 0.138536 -0.015800 -0.037143 0.999185
0.024517 -0.026323 -0.064337 0.182168 -0.981334 0.061629
0.008837 -0.022742 0.097040 0.084572 -0.991244 0.101401
0.034803 -0.023474 -0.061839 0.459691 -0.887557 0.030446
-0.041228 -0.013207 0.011124 -0.902355 -0.409191 0.135344
0.042698 -0.009940 0.048627 0.919831 -0.384092 0.079906
0.035000 -0.018740 0.034271 0.315712 -0.946723 0.063571
-0.020087 -0.021282 0.051246 -0.075940 -0.995422 0.058040
-0.023984 -0.023397 0.009719 -0.128049 -0.990343 0.053145
-0.005669 -0.029866 -0.077448 -0.014362 -0.998862 0.045483
-0.006379 -0.024051 0.066814 -0.112653 -0.993350 0.023775
0.040659 -0.016763 -0.002027 0.769784 -0.637555 0.030915
-0.025062 -0.022245 0.025850 -0.141430 -0.987837 0.064618
0.015867 -0.007525 0.129785 0.645041 -0.599396 0.473969
0.036123 0.021284 0.050593 0.418164 0.906493 0.058390
-0.001913 -0.023968 0.019347 0.028551 -0.996644 0.076718
-0.035358 -0.024412 -0.046796 -0.233038 -0.970876 0.055613
0.024484 0.024203 0.039468 0.130679 0.990191 0.049445
0.004119 -0.027505 -0.041661 0.054966 -0.996653 0.060514
0.018131 0.012845 0.115666 0.619986 0.496051 0.607908
-0.027637 -0.028205 -0.086709 -0.171336 -0.984905 0.024616
0.032277 0.002472 -0.111080 -0.118673 -0.001145 -0.992933
-0.036884 -0.011907 0.038333 -0.909434 -0.368355 0.192989
0.044221 -0.009465 -0.028570 0.966615 -0.255532 -0.018917
0.001651 0.016141 0.138099 -0.182717 0.970198 0.159153
-0.047865 -0.015566 -0.076803 -0.922742 -0.383754 0.035778
-0.050132 -0.007989 -0.077985 -0.980087 -0.196883 0.025831
0.045979 0.004917 0.021008 0.996335 0.081319 0.026546
0.016251 -0.022923 0.015163 0.104659 -0.991758 0.073906
0.026988 0.002491 0.112627 0.389664 0.010806 0.920894
0.016955 -0.002364 0.118598 0.907943 -0.322542 0.267594
-0.027602 0.026792 0.030828 -0.214429 0.974793 0.061641
-0.048814 -0.025021 -0.102651 -0.711842 -0.700624 0.049057
-0.045956 -0.008989 -0.015049 -0.963331 -0.249486 0.098743
-0.006396 -0.030233 -0.091141 -0.022662 -0.990823 0.133256
0.003820 -0.026694 -0.027478 0.050089 -0.997283 0.054016
-0.003021 0.034377 -0.073811 0.025257 0.998141 0.055476
0.028107 0.030757 -0.108793 0.246882 0.829355 -0.501218
-0.028921 -0.024347 -0.022183 -0.169175 -0.984135 0.053462
-0.033948 -0.022422 -0.111445 0.048365 0.068648 -0.996468
0.020070 0.025199 0.032475 0.138522 0.988702 0.057280
-0.030106 0.004312 0.095052 -0.961088 0.100352 -0.257368
-0.016196 -0.028723 -0.066694 -0.097759 -0.993185 0.063453
-0.025290 -0.005929 0.087944 -0.894480 -0.316639 -0.315665
-0.025283 0.008370 0.077332 -0.967024 0.201993 0.155124
0.026853 -0.014136 0.107837 0.568429 -0.699270 0.433485
-0.014197 -0.025009 -0.001899 -0.072654 -0.995180 0.065866
0.039318 -0.016750 -0.107544 0.903594 -0.297330 -0.308403
0.040578 -0.013079 -0.105083 0.971104 -0.227974 -0.070607
0.041481 -0.009358 0.063380 0.903483 -0.412205 0.117500
0.014001 -0.024471 -0.004237 0.107847 -0.991965 0.066145
-0.027653 -0.025880 -0.046081 -0.163521 -0.985090 0.053466
-0.030796 0.009435 -0.110495 0.054849 0.022513 -0.998241
-0.017102 -0.029663 -0.091109 -0.085266 -0.988366 0.125945
-0.015141 -0.021282 0.056462 0.006274 -0.997687 -0.067691
-0.048865 0.021319 -0.093546 -0.779654 0.331117 0.531508
-0.036204 -0.025721 -0.071911 -0.247416 -0.967229 0.057033
0.026984 0.026739 -0.008660 0.173663 0.983212 0.055987
-0.040010 -0.025416 -0.087115 -0.377416 -0.925239 0.038593
0.023633 0.028421 -0.111567 0.067758 0.350921 -0.933950
0.038870 0.020729 0.079441 0.673924 0.714860 0.186553
0.044903 0.012674 -0.001594 0.963388 0.268034 0.006487
0.043235 -0.012577 -0.028576 0.933869 -0.357443 -0.011145
0.002649 -0.029756 -0.077548 0.038374 -0.997941 0.051397
0.040916 0.013490 0.086553 0.855226 0.387831 0.343766
-0.032644 0.019230 0.051046 -0.840857 0.442060 0.312320
0.022897 0.000879 0.114657 0.588779 -0.066858 0.805524
0.040215 0.021108 -0.093941 0.935304 0.353192 -0.021498
-0.009546 -0.026083 -0.015317 -0.041049 -0.997285 0.061130
-0.030143 -0.018778 0.047369 -0.611660 -0.776799 0.149851
0.005684 0.020503 0.113513 0.049713 0.818162 0.572834
0.014578 0.026108 0.030148 0.136892 0.988369 0.066236
0.007047 -0.025980 -0.018153 0.071559 -0.995560 0.061153
0.035999 0.023587 -0.110712 0.510666 0.298108 -0.806444
0.036429 -0.010415 -0.111687 0.243005 -0.064763 -0.967861
0.012626 -0.030338 -0.092179 0.088086 -0.969208 0.229948
-0.002830 -0.025728 -0.007646 0.010806 -0.997844 0.064741
-0.009502 0.035795 -0.105150 0.027420 0.995382 -0.091998
0.028330 0.025507 0.081778 0.292804 0.933008 0.209191
0.007558 -0.011190 0.137713 0.164108 -0.958314 -0.233886
0.037470 0.024480 -0.019500 0.536885 0.843088 0.030922
0.004219 -0.024567 0.074470 -0.044879 -0.996280 0.073568
-0.026045 -0.023764 -0.002535 -0.145279 -0.988008 0.052283
0.017830 0.005556 -0.110572 -0.037454 0.011695 -0.999230
0.034389 -0.021024 -0.004332 0.293445 -0.955351 0.034566
0.043505 0.001096 -0.082394 0.997848 -0.031867 -0.057300
-0.024274 -0.025173 -0.024163 -0.132600 -0.989590 0.055937
0.018831 -0.028059 -0.078416 0.162248 -0.985806 0.043154
-0.045240 -0.004669 -0.000876 -0.982208 -0.147214 0.116601
0.027395 -0.023651 -0.025151 0.202739 -0.977721 0.054393
0.010096 -0.020705 0.055615 0.093634 -0.994970 0.035604
0.003244 -0.026612 -0.024773 0.042012 -0.997789 0.051499
-0.023264 -0.030994 -0.104799 -0.016896 -0.997337 -0.070944
-0.028163 -0.028318 -0.092172 -0.175247 -0.956442 0.233467
-0.022967 -0.022367 0.028752 -0.125808 -0.990659 0.052600
-0.001033 0.015463 0.119235 -0.222139 0.964844 0.140467
-0.003590 0.027780 0.033416 0.053072 0.996344 0.066945
0.026144 -0.018949 0.062396 0.132906 -0.990545 0.034019
0.002829 -0.023477 0.022344 0.060907 -0.994769 0.082001
-0.009305 0.025898 0.098073 -0.256531 0.965504 0.044651
-0.030350 0.029127 -0.018849 -0.180042 0.982169 0.054119
-0.041285 0.030024 -0.091444 -0.506463 0.847620 0.158225
-0.046687 0.001890 -0.008850 -0.993815 0.016380 0.109834
0.004955 0.015954 0.119042 0.130912 0.979067 0.155854
0.036387 -0.015474 0.086619 0.641807 -0.696529 0.320827
-0.004088 -0.010756 0.126707 -0.534673 -0.845030 -0.006982
0.042350 0.000512 0.089875 0.942410 -0.071813 0.326661
-0.026123 -0.028478 -0.088353 -0.159002 -0.986981 0.024226
-0.046361 0.019218 -0.041778 -0.920325 0.386508 0.060109
-0.013000 0.000627 -0.109944 0.013436 0.000022 -0.999910
0.027721 0.013977 0.110696 0.340166 0.284832 0.896191
0.029393 0.000073 -0.110921 -0.060177 0.027793 -0.997801
0.042361 0.015492 -0.080892 0.974992 0.218906 -0.038343
0.021444 0.018775 0.110866 0.277187 0.459669 0.843725
-0.005001 -0.007679 0.137276 -0.560791 -0.577441 -0.593359
-0.004078 0.035437 -0.107124 0.026686 0.974019 -0.224890
0.039458 -0.019041 -0.043755 0.768863 -0.639408 0.002753
-0.050748 -0.006073 -0.090797 -0.980714 -0.124554 0.150621
-0.007414 0.027540 0.039000 0.028989 0.997460 0.065055
0.037470 0.024480 -0.019500 0.536885 0.843088 0.030922
0.036802 0.018968 -0.111278 0.391272 0.128805 -0.911217
0.043410 0.010647 -0.076104 0.990839 0.124995 -0.051132
0.016364 -0.029807 -0.099363 0.132868 -0.991079 -0.010426
-0.013663 -0.002198 0.115064 -0.762741 -0.216774 0.609290
-0.043992 -0.017616 -0.032608 -0.829112 -0.553925 0.075763
0.040037 0.021786 -0.001184 0.703667 0.710019 0.026959
-0.021478 -0.021303 0.056366 -0.214463 -0.976730 0.001884
0.035252 -0.020648 -0.002166 0.337918 -0.940320 0.040125
0.004669 0.006849 0.138436 -0.002914 0.003200 0.999991
-0.035465 0.031536 -0.084085 -0.211282 0.976281 0.047283
-0.036299 -0.023501 -0.111563 0.025078 -0.048105 -0.998527
-0.036912 -0.005718 0.046084 -0.960791 -0.170024 0.219025
-0.009495 0.032761 -0.111026 -0.022853 0.478429 -0.877829
-0.054583 0.010642 -0.096707 -0.842536 0.114814 0.526261
-0.018365 -0.005851 0.109555 -0.581786 -0.272149 0.766459
-0.032776 -0.006850 0.055585 -0.875006 -0.159732 0.457001
0.028331 0.024820 0.019535 0.135523 0.989184 0.056113
-0.005871 -0.004181 0.138440 -0.103333 -0.020493 0.994436
0.018339 -0.002334 0.120377 0.901530 -0.287955 -0.322995
-0.020831 0.033293 -0.068785 -0.113601 0.991945 0.056042
-0.003305 -0.028242 -0.050804 0.000806 -0.998246 0.059205
-0.025922 -0.006049 0.072374 -0.927868 -0.254831 0.272255
-0.009671 0.027372 0.077384 -0.318308 0.943558 0.091534
0.038210 0.024947 -0.101647 0.865034 0.501615 -0.009935
-0.034634 0.029937 -0.050024 -0.199652 0.978653 0.048755
0.003960 0.025972 0.052999 0.077365 0.995160 0.060586
0.008293 0.032839 -0.110384 0.060465 0.640932 -0.765213
0.003314 0.027655 0.095323 -0.012351 0.997403 0.070949
-0.038954 0.019323 0.020911 -0.883301 0.445908 0.144723
0.008233 0.035330 -0.095771 0.090384 0.995358 -0.033074
0.030187 -0.019308 0.086925 0.393182 -0.886078 0.245506
-0.043992 -0.017616 -0.032608 -0.829112 -0.553925 0.075763
0.027824 -0.016448 -0.111363 -0.135489 0.181559 -0.974002
-0.025742 0.003051 0.079046 -0.995524 0.038071 0.086497
0.032226 -0.020098 -0.111694 0.162278 -0.203627 -0.965506
0.035235 -0.023863 -0.093333 0.614700 -0.788735 -0.006408
-0.020820 -0.025476 -0.021048 -0.117169 -0.991623 0.054357
-0.041888 0.012526 0.017273 -0.963786 0.215048 0.157702
0.012982 -0.024976 -0.010380 0.106163 -0.992284 0.064046
-0.029500 -0.012964 0.058441 -0.821667 -0.344636 0.453970
0.013628 -0.009012 0.118411 0.307573 -0.345313 0.886655
-0.020405 0.018197 0.083985 -0.788166 0.612827 -0.056898
0.006733 -0.020913 0.059263 0.067998 -0.997577 0.014681
-0.012138 -0.026826 -0.031368 -0.074232 -0.995779 0.053987
0.033267 0.029263 -0.082363 0.401063 0.915675 0.026205
-0.046212 0.032189 -0.105141 -0.504511 0.862556 -0.038280
-0.006643 0.013286 0.125325 -0.704165 0.709874 -0.015144
-0.004025 -0.027205 -0.032934 -0.002500 -0.998589 0.053051
-0.048679 0.018941 -0.087986 -0.947207 0.319751 0.023627
-0.043197 -0.007062 0.011223 -0.966600 -0.211308 0.145029
-0.023984 -0.023397 0.009719 -0.128049 -0.990343 0.053145
0.014464 0.032306 -0.065435 0.142876 0.987579 0.065380
-0.039533 -0.010419 -0.110610 0.099488 0.009757 -0.994991
0.041974 -0.015142 -0.040811 0.904299 -0.426585 -0.016394
0.043446 -0.009359 0.040824 0.925313 -0.369134 0.086811
-0.015336 -0.026463 -0.028440 -0.067868 -0.996568 0.047400
-0.034559 -0.024156 -0.038645 -0.217050 -0.974895 0.049682
0.030007 0.025652 0.075189 0.383051 0.867454 -0.317483
-0.041726 0.034032 -0.105063 -0.274913 0.960398 -0.045377
0.037652 -0.018915 0.010197 0.515610 -0.855840 0.041032
0.020523 -0.025900 -0.110683 0.089667 -0.540192 -0.836751
0.041706 0.019707 0.000607 0.810628 0.585223 0.019898
-0.016307 -0.018679 0.097001 -0.458351 -0.888345 0.027521
0.042267 0.019215 -0.008027 0.846425 0.532248 0.016627
-0.000541 -0.021242 0.107947 -0.121592 -0.774327 0.620994
-0.053631 -0.002935 -0.095197 -0.766832 -0.051485 0.639780
-0.046482 0.014062 -0.022636 -0.964251 0.247732 0.094064
-0.025250 -0.024962 -0.022264 -0.146375 -0.987856 0.052096
0.016513 -0.028184 -0.073390 0.148233 -0.987714 0.049478
-0.039114 -0.023106 -0.043538 -0.431863 -0.899486 0.066479
-0.019721 -0.024111 0.005359 -0.106449 -0.992983 0.051505
-0.005919 -0.031284 -0.098231 0.017041 -0.998077 -0.059591
0.006512 -0.030793 -0.092681 0.021774 -0.975867 0.217276
-0.023405 0.028700 0.007935 -0.122519 0.990641 0.060155
0.044616 -0.002259 -0.055300 0.996134 -0.080266 -0.035712
0.026144 -0.018949 0.062396 0.132906 -0.990545 0.034019
0.036722 -0.021716 -0.044963 0.550191 -0.834433 0.031795
0.014356 0.024586 0.065369 0.161156 0.950821 -0.264515
-0.020036 -0.028006 -0.062625 -0.123389 -0.990014 0.068169
-0.028300 0.021466 0.057039 -0.746180 0.515249 0.421585
-0.028000 -0.021161 0.036910 -0.271257 -0.959022 0.081836
0.016946 0.010393 0.124754 0.853738 0.520519 -0.013828
-0.045240 -0.004669 -0.000876 -0.982208 -0.147214 0.116601
0.027050 0.015137 0.110552 0.322858 0.331695 0.886421
0.012499 0.033607 -0.083712 0.134883 0.989929 0.042967
0.017364 0.004338 0.118706 0.965684 0.177374 0.189715
0.025413 0.014143 0.111381 0.305821 0.275033 0.911499
0.043523 -0.002245 -0.078973 0.996015 -0.073233 -0.050893
-0.014511 -0.027526 -0.046197 -0.083085 -0.994838 0.058258
-0.044011 -0.008882 0.002266 -0.959505 -0.253404 0.123033
0.004523 0.026134 0.049480 0.087143 0.994655 0.055393
-0.056182 0.002778 -0.103487 -0.999743 0.022132 -0.004988
0.004436 0.032732 -0.055313 0.082321 0.994436 0.065723
0.012660 -0.024110 0.079851 0.056785 -0.993212 0.101514
0.040915 0.020258 0.009596 0.776599 0.628936 0.036511
-0.008760 -0.030383 -0.092398 -0.036962 -0.977360 0.208329
-0.047380 -0.014915 -0.059683 -0.923951 -0.379272 0.049681
-0.036409 0.029032 -0.040045 -0.262919 0.963170 0.056365
0.025481 0.027305 -0.014107 0.172194 0.983700 0.051802
0.000534 0.035533 -0.103075 0.045702 0.997991 -0.043887
-0.037462 -0.003244 0.045244 -0.969615 -0.117975 0.214308
0.030800 -0.021509 0.002447 0.200396 -0.978912 0.039667
-0.013548 0.036296 -0.097147 0.004324 0.997696 0.067708
-0.028053 0.003257 0.090782 -0.870898 0.071699 -0.486206
-0.044382 0.022506 -0.037244 -0.850291 0.521451 0.071371
-0.001870 -0.024470 0.011965 0.019883 -0.997706 0.064716
-0.034031 -0.025850 -0.063279 -0.207209 -0.977105 0.048278
0.036798 -0.007165 0.098766 0.835632 -0.406957 0.368924
0.027938 -0.022593 -0.007257 0.198890 -0.978386 0.056605
-0.007859 0.016053 0.114254 -0.515773 0.669967 0.533968
0.007244 0.026106 0.108023 0.027297 0.862955 0.504543
-0.027637 -0.028205 -0.086709 -0.171336 -0.984905 0.024616
-0.022228 0.015839 0.079693 -0.857890 0.504853 0.095645
-0.047568 0.000712 -0.017498 -0.994730 -0.027156 0.098863
-0.005341 -0.024004 0.064620 0.059397 -0.934761 -0.350278
0.038960 -0.017835 0.012961 0.632490 -0.773787 0.034778
-0.019739 0.006998 -0.110082 0.030530 0.018795 -0.999357
