-0.025030 0.014126 0.008978 0.129316 -0.111002 0.985371
-0.003882 -0.041162 -0.019052 -0.086297 -0.933762 -0.347335
-0.031304 -0.003016 0.008796 -0.037183 -0.028326 0.998907
0.002758 0.033174 0.009373 -0.045804 -0.202322 0.978247
0.006169 -0.037285 0.009714 -0.052991 0.362344 0.930537
0.035350 -0.000292 0.009244 0.181503 -0.042892 0.982454
-0.016163 0.006417 -0.017367 -0.122120 0.045262 -0.991483
-0.032385 -0.025610 -0.019554 -0.691894 -0.524661 -0.495997
-0.032078 -0.023266 0.009569 0.153318 0.117693 0.981143
0.021865 -0.035137 0.010835 -0.456199 0.748331 0.481543
-0.005313 0.031107 -0.018413 -0.058769 0.371720 -0.926483
-0.010663 0.014352 0.008494 0.012166 -0.026397 0.999578
-0.019080 0.037211 -0.005391 -0.440436 0.897772 -0.004533
0.030788 0.027542 0.010812 -0.547872 -0.492020 0.676574
0.030093 -0.002565 0.009093 0.090632 -0.016353 0.995750
-0.019138 0.018401 0.008565 0.041556 -0.021229 0.998911
0.040200 0.009884 -0.018254 0.900846 0.244803 -0.358535
-0.014455 -0.023259 -0.017944 0.086887 0.158840 -0.983474
-0.040419 -0.001239 0.009506 0.427802 0.016088 0.903729
-0.039739 0.013405 -0.004353 -0.946794 0.321791 0.005696
0.042038 0.003779 0.006734 0.996666 0.081506 -0.003712
-0.012729 0.019196 -0.017910 0.041611 -0.055483 -0.997592
0.024016 0.034283 0.008789 0.559265 0.825065 -0.080565
-0.024034 0.007953 -0.017948 -0.052040 0.010200 -0.998593
-0.019261 -0.036448 0.010338 0.391903 0.749071 0.534140
-0.040185 -0.012132 0.002427 -0.965592 -0.259845 -0.010634
0.002976 0.033163 -0.017622 -0.021155 -0.147437 -0.988845
-0.028434 0.030705 -0.011623 -0.686636 0.726932 0.010070
-0.026534 -0.023026 -0.018859 0.545778 0.507852 -0.666492
0.028868 -0.012983 -0.018521 0.346794 -0.163489 -0.923583
-0.004969 0.032246 0.008987 0.063017 -0.351112 0.934210
0.013296 0.015472 -0.017290 -0.087803 -0.123236 -0.988485
0.018532 0.008126 -0.017350 -0.136297 -0.052365 -0.989283
-0.005633 -0.006537 -0.016678 0.008657 0.007464 -0.999935
-0.035197 -0.023071 0.003612 -0.838934 -0.544209 0.005161
0.036187 -0.020425 -0.018762 0.825064 -0.478336 -0.300773
-0.012570 0.039865 0.008580 -0.279946 0.959849 -0.017879
0.009491 0.040688 0.001954 0.221135 0.975095 -0.017001
-0.024822 0.033638 0.008893 -0.603011 0.797533 -0.017849
-0.004758 -0.010167 0.008403 0.005133 0.008050 0.999954
0.028928 -0.016556 0.009284 -0.268574 0.139732 0.953070
0.023237 0.033678 -0.019671 0.492716 0.670176 -0.555064
0.001230 0.019059 -0.017419 0.027153 0.007416 -0.999604
0.005459 0.041434 -0.000389 0.151477 0.988294 0.018134
0.004393 -0.042501 0.012374 0.080092 -0.470243 0.878895
0.006913 -0.041623 -0.006579 0.168501 -0.985637 -0.011282
-0.041840 -0.002542 0.000159 -0.997197 -0.074452 0.007442
0.038315 -0.017006 -0.012800 0.908469 -0.417160 -0.025722
-0.003233 -0.042004 -0.004722 -0.122146 -0.992289 -0.021052
-0.026213 -0.020627 -0.017674 0.064042 -0.047063 -0.996837
0.025475 0.017759 -0.018622 0.189821 0.157502 -0.969103
-0.015350 0.013401 0.008545 0.007572 -0.017476 0.999819
0.005686 -0.032237 0.008915 -0.028979 0.295356 0.954948
0.018083 -0.034967 -0.020763 0.056999 -0.100346 -0.993319
0.026375 0.032546 0.007541 0.625435 0.780231 0.008453
-0.008164 0.005291 -0.016716 0.003148 -0.009511 -0.999950
0.036866 -0.020232 0.001769 0.877468 -0.479431 -0.014012
0.013433 -0.032273 -0.019038 -0.281594 0.721761 -0.632270
-0.027158 -0.010998 0.009068 0.107916 0.039138 0.993389
-0.003235 0.028567 0.009018 0.034148 -0.254804 0.966390
-0.027708 -0.004246 0.008719 0.213058 0.027755 0.976645
-0.025287 0.033332 -0.001667 -0.609940 0.792412 0.007515
-0.012924 -0.026838 -0.018727 0.051496 0.117213 -0.991771
-0.024639 -0.013257 -0.018137 0.269751 0.182487 -0.945480
-0.021630 -0.036095 -0.005397 -0.489248 -0.872118 0.006861
0.004819 -0.011665 -0.016822 -0.016085 -0.003697 -0.999864
0.013800 -0.029350 0.008738 -0.097739 0.170143 0.980560
-0.007643 -0.041404 -0.008453 -0.159877 -0.987120 -0.005814
-0.034715 -0.001149 -0.018209 0.757292 0.041179 -0.651777
-0.029222 -0.019148 -0.018404 0.636864 0.382533 -0.669382
0.003980 0.008789 0.008384 -0.001626 -0.014144 0.999899
-0.026185 -0.022035 0.009442 0.009115 0.003857 0.999951
0.005539 0.041388 -0.006408 0.160355 0.986983 0.012301
0.007551 -0.018895 -0.017342 -0.058759 0.117143 -0.991375
0.035000 0.023044 0.003348 0.836977 0.547022 -0.015372
-0.037869 -0.018182 -0.014424 -0.898432 -0.438487 -0.023424
-0.040874 0.009477 -0.012856 -0.969339 0.245725 -0.000971
-0.033363 -0.002975 0.009186 0.176373 0.026248 0.983973
-0.037866 0.018395 0.010286 -0.894645 0.311069 -0.320697
0.008879 -0.030060 0.008763 -0.001677 -0.116145 0.993231
-0.039642 0.013733 -0.009698 -0.946910 0.321487 -0.002644
0.033466 -0.024615 0.011084 -0.667197 0.645001 0.372589
-0.033676 0.014438 0.008901 0.237720 -0.129211 0.962701
-0.035805 0.021654 -0.012673 -0.857127 0.515106 0.000001
-0.028805 0.009194 0.009024 -0.104429 0.022515 0.994277
0.013670 -0.023766 0.008599 -0.033341 0.107248 0.993673
-0.028834 -0.029289 0.010631 0.626970 0.581801 0.518090
0.042053 0.001013 0.009920 0.993656 0.050172 -0.100653
-0.012729 0.019196 -0.017910 0.041611 -0.055483 -0.997592
0.034059 0.005520 -0.018723 -0.809067 -0.167539 -0.563330
0.009262 -0.025468 0.008591 -0.036402 0.071661 0.996765
-0.041896 0.001479 0.002732 -0.999639 0.021224 0.016462
-0.019511 -0.037260 0.002466 -0.457642 -0.889136 0.000707
-0.010669 -0.036308 -0.020600 0.037453 0.051236 -0.997984
-0.005604 0.017168 -0.017400 -0.013496 0.060857 -0.998055
0.032517 0.013914 -0.019929 -0.621792 -0.251519 -0.741696
-0.025956 0.015145 -0.018893 0.004454 0.008649 -0.999953
-0.027125 -0.025322 0.009153 0.222535 0.248885 0.942621
0.010248 -0.040937 0.009998 0.266666 -0.944659 -0.191072
0.004875 0.007628 -0.016771 0.017561 -0.010458 -0.999791
0.003894 0.000958 0.008336 -0.007029 -0.000265 0.999975
-0.010717 0.001624 -0.016698 -0.001266 -0.003723 -0.999992
0.017659 -0.037570 -0.019041 0.390470 -0.820408 -0.417689
-0.022501 -0.025372 -0.017554 0.187540 0.225540 -0.956013
-0.001182 -0.019608 0.008509 0.004919 0.025849 0.999654
0.018606 -0.024276 -0.018965 0.101996 -0.135944 -0.985452
0.001265 -0.021472 0.008555 -0.007053 0.016646 0.999837
-0.014598 0.018421 0.008584 0.008653 -0.008646 0.999925
-0.032685 -0.022425 -0.020545 -0.168694 -0.189358 -0.967309
-0.009362 0.017232 0.008519 0.009832 -0.020588 0.999740
-0.038286 0.001823 -0.020383 -0.114952 -0.058283 -0.991660
-0.023123 -0.031144 0.009882 0.039160 0.031026 0.998751
0.006302 -0.029897 -0.018949 -0.007052 -0.134778 -0.990851
0.018230 -0.027091 -0.018091 0.199337 -0.276607 -0.940082
0.003716 0.027323 0.008621 -0.026657 -0.151016 0.988172
0.001784 -0.001415 -0.016688 -0.006614 0.004512 -0.999968
0.019472 0.032850 -0.020770 -0.034399 -0.048014 -0.998254
0.014162 -0.008910 -0.017595 -0.084894 0.023072 -0.996123
-0.022623 -0.003052 0.008564 0.022121 0.008040 0.999723
-0.017680 -0.015439 0.008589 0.008604 0.004422 0.999953
-0.020505 -0.032766 -0.020605 -0.026903 -0.054005 -0.998178
0.001056 -0.037889 -0.020615 -0.014244 0.074306 -0.997134
0.038995 0.015526 -0.006698 0.917551 0.397398 -0.013213
-0.009065 0.002313 0.008354 0.009725 -0.004765 0.999941
0.011360 0.013873 -0.017395 0.029004 0.006905 -0.999555
-0.014219 0.024918 -0.018557 0.078798 -0.208345 -0.974876
-0.013841 0.036647 0.009729 -0.013650 0.034800 0.999301
-0.005910 -0.041626 -0.008846 -0.129214 -0.991597 0.006205
-0.003726 -0.026615 0.008581 -0.010988 0.026340 0.999593
0.002726 0.022825 -0.018097 -0.003208 -0.135700 -0.990745
-0.041655 -0.004339 -0.000551 -0.994885 -0.100545 0.009709
0.007452 0.035111 0.009011 -0.005697 0.081318 0.996672
0.001845 -0.007534 -0.016665 -0.023966 0.007914 -0.999681
-0.007684 0.004248 0.008354 0.005357 -0.007547 0.999957
0.006733 -0.012761 -0.016862 -0.093823 0.182401 -0.978738
0.005764 0.024296 0.008654 0.016097 -0.010412 0.999816
-0.010992 -0.034916 -0.020582 0.105210 0.294103 -0.949965
0.030372 0.005820 0.008938 0.134026 -0.002373 0.990975
0.008683 0.030376 0.008776 -0.060134 0.028665 0.997779
-0.024565 0.004914 0.008599 -0.007463 -0.001334 0.999971
-0.013645 -0.030185 0.009105 0.097454 0.287004 0.952959
-0.030924 0.010339 0.008976 0.231247 -0.081235 0.969498
-0.031507 -0.027169 -0.018182 -0.727919 -0.606091 -0.320605
-0.009400 -0.030291 0.008728 0.043291 -0.002325 0.999060
0.001237 -0.041456 -0.019213 0.041060 -0.891089 -0.451966
-0.000318 0.013369 -0.016817 0.012858 -0.057860 -0.998242
0.005137 -0.036566 0.009057 -0.006674 0.339849 0.940456
0.000132 -0.023956 0.008614 -0.006125 0.019811 0.999785
0.013529 -0.031009 -0.017801 -0.145174 0.245548 -0.958452
0.019095 -0.033454 -0.020642 0.007246 0.004209 -0.999965
0.003075 -0.041510 0.011531 -0.073105 0.852948 0.516851
0.023794 -0.019487 0.008985 0.086225 -0.071517 0.993705
0.015829 -0.009102 0.008535 -0.024197 0.011662 0.999639
-0.006606 -0.029749 -0.018780 -0.027438 -0.114848 -0.993004
0.042048 0.002159 -0.007735 0.999366 0.035558 -0.001931
-0.004359 -0.041958 0.004243 -0.119379 -0.992840 -0.004278
-0.038036 -0.017881 0.006137 -0.904206 -0.426652 0.019489
0.025337 -0.033674 -0.004655 0.596512 -0.802590 -0.004712
-0.017734 0.037851 -0.003633 -0.419103 0.907900 -0.008406
-0.019303 0.028072 0.009412 0.011163 -0.006515 0.999916
-0.017528 0.015444 0.008581 0.010796 -0.006085 0.999923
0.025665 -0.019344 0.008804 -0.109329 0.093502 0.989598
0.032011 0.006854 -0.017910 0.282550 0.009328 -0.959207
-0.009565 -0.000154 0.008358 0.008495 -0.001831 0.999962
0.012805 -0.012248 0.008514 -0.008471 0.010430 0.999910
0.015126 -0.004892 0.008502 -0.020808 0.009629 0.999737
0.001106 -0.042292 -0.002522 0.036871 -0.999304 0.005686
-0.038581 0.016467 -0.007893 -0.904132 0.427250 -0.001755
-0.008860 0.021880 -0.017981 -0.001799 -0.000027 -0.999998
0.034018 0.021021 0.009629 -0.173809 -0.192697 0.965742
0.005895 0.013888 0.008485 -0.004572 -0.027832 0.999602
0.005953 -0.042530 0.011561 0.306763 -0.899474 0.311195
-0.006658 -0.040440 -0.019967 -0.100999 -0.729882 -0.676070
0.001055 -0.042044 -0.017030 0.066829 -0.978457 -0.195336
0.016427 -0.034319 -0.020644 -0.056631 0.019534 -0.998204
-0.001405 0.035906 -0.020396 0.034659 -0.491562 -0.870153
0.041776 -0.008332 0.010355 0.952323 -0.114678 -0.282719
0.021023 0.009134 0.008643 -0.016641 -0.010750 0.999804
0.009354 -0.026111 -0.018367 -0.094581 0.217905 -0.971376
-0.028098 -0.031248 0.004990 -0.664553 -0.747166 0.010623
-0.020698 0.036326 0.006080 -0.498515 0.866689 0.018265
0.042208 0.000858 0.011533 0.506744 0.462366 0.727618
-0.009658 -0.010531 0.008412 0.008626 0.011220 0.999900
-0.002643 -0.042053 -0.014526 -0.089906 -0.995942 0.003982
-0.034528 0.010847 -0.020411 0.491680 -0.216821 -0.843350
-0.031646 -0.028744 0.010994 -0.754899 -0.601993 -0.260252
-0.006608 0.037960 -0.020669 0.030404 -0.035296 -0.998914
-0.002065 -0.011502 0.008370 -0.008312 0.010101 0.999914
0.023774 0.005868 0.008668 -0.009746 -0.003510 0.999946
0.016775 -0.038237 -0.017987 0.363755 -0.896441 -0.253131
-0.041963 -0.006960 0.012222 -0.421292 -0.041183 0.905989
0.003521 -0.016673 0.008470 -0.010219 0.021668 0.999713
0.042052 0.002573 -0.003917 0.998943 0.045220 -0.008241
-0.040435 -0.010436 0.009658 -0.935884 -0.225930 -0.270327
-0.019042 -0.025137 -0.018403 -0.172174 -0.297017 -0.939222
0.026553 -0.006322 -0.018191 -0.200820 0.042692 -0.978697
-0.016017 0.036553 0.009540 0.044670 -0.071222 0.996460
0.031523 0.012595 0.009557 -0.057362 -0.019084 0.998171
-0.001662 0.008497 -0.016807 -0.026383 -0.011409 -0.999587
-0.001530 0.018952 0.008515 -0.002211 -0.024887 0.999688
-0.009378 -0.033163 -0.018145 0.131991 0.714238 -0.687344
-0.012863 0.039710 -0.014994 -0.309569 0.950753 -0.015376
-0.016749 -0.014931 0.008569 0.019007 0.015437 0.999700
-0.040374 0.006030 0.010406 0.763117 -0.058638 0.643595
0.001680 -0.000580 0.008367 0.002294 0.005386 0.999983
0.006316 0.016813 0.008500 -0.009733 -0.012848 0.999870
0.028692 0.003738 0.009049 -0.158154 -0.029451 0.986975
0.029661 0.011237 0.008717 -0.041198 -0.014006 0.999053
-0.024109 -0.009849 0.008576 -0.000209 0.004672 0.999989
0.042001 0.001290 -0.015368 0.998817 0.047436 0.010724
-0.040570 -0.003812 0.009953 0.664538 0.009023 0.747200
0.015837 0.013002 0.008589 -0.014035 -0.008127 0.999868
-0.002238 -0.042225 0.001719 -0.069768 -0.997558 0.003384
0.030777 -0.028837 -0.007841 0.732990 -0.680196 -0.007673
0.003614 -0.041586 -0.017948 0.094654 -0.954378 -0.283201
-0.009601 -0.030859 -0.018221 -0.128177 -0.363522 -0.922725
0.014387 0.039966 0.010662 0.249577 0.902547 -0.350884
0.016707 -0.038661 0.002311 0.401749 -0.915673 -0.011832
0.009917 -0.040975 -0.008571 0.234724 -0.971974 -0.013105
0.020238 -0.027698 0.009452 -0.034401 0.007812 0.999378
-0.013141 -0.010537 0.008460 0.013169 0.009168 0.999871
-0.003183 0.041002 0.011036 0.182257 -0.891214 0.415355
0.036313 -0.019802 0.010932 -0.785938 0.486195 0.381990
-0.027703 -0.004936 -0.018200 0.304579 0.073208 -0.949669
0.028595 -0.030884 -0.012952 0.671952 -0.740490 -0.012474
0.003698 -0.042039 0.005445 0.102992 -0.994634 -0.009755
0.025303 0.006180 0.008679 0.009277 -0.004411 0.999947
0.012271 -0.009182 -0.017236 -0.177209 0.149960 -0.972681
-0.018445 -0.028666 -0.017700 0.155907 0.262580 -0.952231
0.018087 -0.019630 0.008576 -0.020007 0.022105 0.999555
-0.040419 -0.001239 0.009506 0.427802 0.016088 0.903729
-0.006419 -0.005507 0.008359 -0.002333 0.010114 0.999946
-0.039506 -0.014465 -0.013349 -0.935797 -0.352274 -0.013647
-0.009818 0.038500 -0.020703 -0.043377 0.375803 -0.925684
-0.025653 -0.013904 0.009009 0.144393 0.057785 0.987832
-0.006621 0.041849 0.012282 -0.074414 0.518998 0.851530
0.000300 0.010478 -0.016760 0.007443 -0.020183 -0.999769
-0.041815 0.003610 0.006017 -0.997881 0.064479 0.008669
-0.019962 -0.024286 -0.018475 -0.206620 -0.254902 -0.944634
-0.020677 0.000155 0.008559 0.025918 -0.001427 0.999663
0.026525 0.028159 -0.020854 0.064665 0.066254 -0.995705
-0.005718 -0.014101 -0.016849 0.069411 0.164630 -0.983910
0.004613 -0.018386 -0.017378 0.005708 -0.069898 -0.997538
0.023692 0.012315 0.008652 -0.048287 -0.025942 0.998497
-0.029329 0.029880 0.012213 -0.183163 0.083446 0.979535
-0.023751 -0.005195 0.008605 -0.005472 -0.005353 0.999971
-0.025384 -0.022579 -0.017680 0.210010 0.192611 -0.958539
0.003691 -0.021421 0.008590 0.001395 0.018022 0.999837
0.002121 0.004886 -0.016687 0.006872 -0.000180 -0.999976
0.024337 0.031862 0.009569 -0.094546 -0.182995 0.978557
-0.037284 0.019037 -0.015770 -0.881206 0.470806 -0.042633
0.014822 0.003919 0.008478 -0.010132 -0.003249 0.999943
0.042029 -0.002648 0.004092 0.996761 -0.078287 -0.018424
0.011297 0.033404 0.009143 0.027679 0.142022 0.989476
-0.014682 0.038336 -0.019353 -0.286994 0.831999 -0.474776
-0.008902 -0.039232 0.009519 0.089753 0.296225 0.950892
0.024181 0.027498 -0.020604 -0.223582 -0.207645 -0.952310
0.012794 -0.040807 0.012119 0.078298 -0.731439 0.677397
0.010727 0.029398 0.008799 0.054121 0.019009 0.998353
-0.036289 -0.018758 -0.020080 -0.603198 -0.348522 -0.717416
0.025898 0.015955 -0.018888 0.079794 0.108252 -0.990916
-0.041921 -0.001240 -0.001138 -0.999503 -0.031441 0.002154
0.036735 -0.011908 0.010011 -0.064151 0.017311 0.997790
-0.003506 0.041654 0.004366 -0.102683 0.994694 0.006336
-0.016191 -0.004060 -0.017445 0.077986 0.040634 -0.996126
-0.033427 -0.025582 -0.009367 -0.804785 -0.593566 0.000861
0.007067 -0.011224 -0.016782 0.010652 -0.005514 -0.999928
-0.018026 0.022023 -0.018569 0.176653 -0.206512 -0.962365
0.020482 0.036380 -0.009886 0.463065 0.886296 0.007088
0.014039 -0.015111 0.008568 -0.009185 0.017106 0.999811
0.020575 -0.003875 -0.017428 -0.211448 0.053307 -0.975935
-0.019156 0.034923 -0.020525 -0.200524 0.362416 -0.910189
0.028809 0.024455 0.009884 -0.193637 -0.170125 0.966210
-0.027971 -0.031310 0.007328 -0.679402 -0.733310 0.025882
-0.011476 -0.006334 0.008391 0.004543 0.014223 0.999889
-0.010537 -0.030498 -0.018278 -0.126483 -0.374590 -0.918523
0.005737 0.032771 -0.017670 -0.008131 -0.198423 -0.980083
0.034967 -0.023426 -0.011649 0.840252 -0.542116 -0.009324
-0.010528 -0.040784 0.008455 -0.288222 -0.954959 -0.070584
0.007018 0.041207 0.008189 0.179370 0.982499 0.050217
-0.040691 -0.010208 0.001228 -0.972702 -0.232044 -0.002636
-0.027271 -0.000458 -0.017854 0.217014 -0.007351 -0.976141
-0.037793 0.016721 -0.018754 -0.871815 0.379225 -0.310044
-0.041781 -0.003315 -0.008314 -0.994913 -0.100717 -0.002091
-0.013295 -0.005325 -0.016554 0.118787 -0.004484 -0.992910
-0.019650 -0.027802 0.009462 -0.008070 0.057390 0.998319
0.009908 0.021595 0.008624 -0.003233 -0.011279 0.999931
-0.008715 -0.036153 -0.020501 0.034638 0.176122 -0.983759
-0.010158 0.040489 -0.000626 -0.240605 0.970616 0.003619
-0.005998 0.012345 -0.016792 0.069919 -0.106688 -0.991831
-0.040419 -0.001239 0.009506 0.427802 0.016088 0.903729
-0.032166 0.010171 0.009322 0.087651 -0.045862 0.995095
-0.025220 -0.026492 -0.020384 0.280340 0.292898 -0.914123
-0.009420 -0.041056 -0.012322 -0.235404 -0.971852 -0.009408
-0.002943 -0.042799 0.011097 -0.036690 -0.982402 0.183142
-0.006801 -0.017871 0.008527 0.004152 0.014490 0.999886
-0.009652 0.040621 -0.002490 -0.217420 0.976003 -0.012134
0.010080 0.012071 -0.017286 -0.077803 -0.114489 -0.990373
0.036340 -0.021086 0.000433 0.865173 -0.501132 0.018468
-0.003384 -0.010042 0.008371 0.010036 0.006905 0.999926
0.004751 0.020459 0.008557 0.004528 -0.024657 0.999686
0.019636 -0.033649 0.009965 0.022748 0.079816 0.996550
-0.006590 0.021124 0.008580 0.008915 -0.024843 0.999652
0.012084 -0.026949 0.009158 -0.033575 0.085349 0.995785
0.000002 -0.028822 0.008956 -0.006904 0.222111 0.974997
0.028928 -0.016556 0.009284 -0.268574 0.139732 0.953070
-0.024229 0.032994 -0.019478 -0.506275 0.699972 -0.503710
0.038266 -0.000500 0.010061 -0.184001 0.009147 0.982883
0.030110 -0.001129 0.009100 0.061273 -0.013745 0.998026
-0.033132 -0.024360 -0.019727 -0.628138 -0.450850 -0.634174
0.036073 0.021234 0.001025 0.852326 0.522887 -0.011404
0.000799 -0.041389 0.010911 -0.116234 0.914424 0.387709
-0.032196 -0.026941 0.005927 -0.750139 -0.661014 0.018765
0.037228 0.015128 -0.020618 0.441119 0.196495 -0.875673
0.006360 -0.041593 -0.015005 0.151973 -0.988384 0.000602
-0.020910 0.036280 -0.002302 -0.496098 0.868137 -0.014978
0.038373 -0.017239 0.001184 0.907738 -0.419512 -0.004571
0.012158 0.039925 0.002321 0.289825 0.957011 -0.011504
0.020575 -0.003875 -0.017428 -0.211448 0.053307 -0.975935
0.040402 -0.008964 -0.018535 0.925049 -0.183479 -0.332595
-0.033516 0.004465 0.009350 0.138258 -0.005973 0.990378
0.009175 0.023771 0.008670 0.012156 -0.005999 0.999908
-0.032485 -0.009288 0.009349 0.070565 0.025661 0.997177
0.040155 0.012734 -0.006091 0.941608 0.336628 -0.007497
-0.017804 0.036446 -0.020149 -0.334436 0.613775 -0.715145
0.010593 -0.023586 -0.018089 -0.020841 0.054182 -0.998314
-0.025287 0.033332 -0.001667 -0.609940 0.792412 0.007515
0.013886 0.015223 0.008558 -0.015634 -0.015449 0.999758
-0.025000 -0.019059 -0.018406 -0.269024 -0.168979 -0.948194
0.008823 0.003574 0.008373 -0.023466 -0.004600 0.999714
-0.029968 -0.018995 -0.019501 0.686142 0.373382 -0.624335
0.023203 -0.035126 -0.016587 0.536908 -0.830833 -0.146444
-0.010270 0.040501 -0.011307 -0.223677 0.974640 -0.006716
0.026576 0.032367 0.001322 0.646162 0.763058 0.014735
0.003403 0.001783 -0.016634 0.000796 -0.006238 -0.999980
-0.018888 -0.009605 -0.017078 0.190035 0.093110 -0.977352
0.035639 -0.016412 -0.020844 0.162618 -0.085775 -0.982954
-0.023135 0.026577 -0.019865 0.428366 -0.528303 -0.733075
0.034425 -0.025491 0.011280 0.735515 -0.589176 0.334498
0.002219 -0.042094 0.008728 -0.035930 -0.999328 -0.007231
0.042026 -0.001566 -0.005405 0.998841 -0.047855 -0.005224
0.024307 -0.018004 0.009141 0.067350 -0.078407 0.994644
0.032508 -0.020429 -0.020763 0.032292 -0.027002 -0.999114
0.035610 0.010949 0.009384 -0.382514 -0.129948 0.914766
0.004071 -0.039048 -0.020661 -0.016560 -0.129561 -0.991433
0.027365 -0.024908 0.009155 -0.288567 0.242913 0.926133
0.040616 0.011507 -0.000692 0.954880 0.296711 -0.012934
-0.033132 -0.005796 0.009274 0.131787 0.019189 0.991092
0.012699 0.003848 0.008455 -0.029329 -0.001720 0.999568
-0.002089 0.016228 -0.017517 0.020544 -0.116777 -0.992946
-0.003237 -0.023470 -0.017973 -0.005972 0.091115 -0.995822
-0.035921 0.014244 0.009857 0.037392 -0.034075 0.998720
-0.005605 -0.035116 0.009095 -0.041870 -0.085943 0.995420
-0.000037 0.009154 -0.016777 0.017829 -0.005333 -0.999827
0.040437 -0.011651 -0.005073 0.963145 -0.268690 0.012559
-0.039014 0.015196 -0.014178 -0.925564 0.378569 0.004109
-0.010994 0.025730 0.008728 0.068006 -0.162029 0.984440
0.037367 -0.019089 -0.003917 0.888982 -0.457804 -0.011274
-0.018272 0.037405 0.009917 -0.391203 0.882255 -0.261888
0.004751 0.020459 0.008557 0.004528 -0.024657 0.999686
-0.009815 0.019181 -0.017621 0.096187 -0.179718 -0.979004
-0.027890 0.029921 0.010552 0.603915 -0.648394 0.463542
-0.022653 0.014681 0.008576 0.066753 -0.050679 0.996482
0.017618 0.037746 -0.004484 0.418528 0.908202 -0.001914
-0.022496 -0.004614 -0.017877 0.081796 0.008119 -0.996616
-0.000104 -0.035828 0.008990 -0.061033 -0.191545 0.979584
-0.018335 -0.010096 0.008553 0.012306 0.010755 0.999866
0.040584 -0.011195 -0.006909 0.964604 -0.263568 0.008462
-0.006564 0.008286 0.008379 0.008326 -0.012466 0.999888
0.008146 -0.002442 0.008372 -0.014681 0.002506 0.999889
0.005738 -0.041789 0.001205 0.136809 -0.990578 -0.006246
0.033176 0.025541 -0.016759 0.793098 0.602359 -0.090325
0.022061 -0.025254 0.009306 -0.112060 0.141404 0.983589
-0.005381 -0.007522 0.008367 0.004152 -0.003032 0.999987
0.019171 0.037229 0.005118 0.428850 0.903308 -0.011043
0.037728 -0.018601 0.001623 0.894739 -0.446503 -0.008811
0.018505 -0.035062 0.009681 -0.099769 -0.078634 0.991899
0.000481 -0.005961 0.008337 0.005228 0.008022 0.999954
0.019007 -0.037574 -0.002925 0.446126 -0.894954 0.005320
-0.032664 -0.026383 0.004338 -0.759602 -0.650364 0.005721
-0.027687 -0.018539 -0.017580 0.007730 -0.020483 -0.999760
-0.019962 -0.024286 -0.018475 -0.206620 -0.254902 -0.944634
-0.018155 0.037265 0.011464 0.302074 -0.764866 0.568974
0.019014 -0.027821 -0.017811 -0.095423 0.113126 -0.988988
0.032254 0.026650 0.001871 0.776204 0.630473 -0.003194
-0.034347 -0.002313 0.009310 -0.077877 -0.022850 0.996701
0.013213 0.024566 -0.018534 -0.119774 -0.256283 -0.959152
-0.001069 0.041855 -0.001808 -0.077730 0.996904 -0.011894
0.011962 -0.032464 -0.018400 -0.242268 0.727734 -0.641646
0.029647 -0.028280 -0.019948 0.529831 -0.542621 -0.651798
0.040867 0.003380 -0.019906 0.830595 0.077844 -0.551410
0.003408 -0.016092 -0.017448 -0.064807 0.109506 -0.991871
0.032568 -0.026755 -0.000290 0.783056 -0.621942 -0.003407
0.035274 -0.001596 0.009260 0.263808 -0.007872 0.964543
-0.003850 0.007278 -0.016745 0.000021 -0.010682 -0.999943
0.007120 0.021261 0.008599 -0.009237 -0.023151 0.999689
0.014650 -0.038195 0.009657 -0.272643 0.595315 0.755822
0.015194 -0.022521 0.008573 -0.051287 0.089513 0.994664
0.025073 -0.018856 0.008847 0.126184 -0.068709 0.989624
-0.013340 -0.024110 -0.018083 0.090755 0.183324 -0.978854
0.026611 0.031519 0.011260 -0.485418 -0.631422 0.604711
-0.039512 0.013984 -0.007891 -0.943459 0.331473 0.003246
-0.006801 -0.017871 0.008527 0.004152 0.014490 0.999886
-0.010158 0.040489 -0.000626 -0.240605 0.970616 0.003619
0.015423 -0.037275 -0.020566 0.173155 -0.456310 -0.872811
0.024337 0.031862 0.009569 -0.094546 -0.182995 0.978557
-0.013148 0.010481 -0.017393 -0.037064 0.014249 -0.999211
0.007653 0.034632 -0.020089 -0.155808 -0.585346 -0.795672
-0.039170 0.015119 -0.009067 -0.931502 0.363370 -0.016320
0.018543 0.017275 0.008663 0.009903 0.000334 0.999951
0.032808 0.004331 -0.017755 -0.032848 0.071373 -0.996909
-0.005865 0.017880 0.008519 0.005429 -0.019927 0.999787
-0.029155 0.004586 0.009086 0.044441 -0.002485 0.999009
-0.004727 -0.039534 -0.020678 -0.076771 -0.269775 -0.959858
-0.005663 0.041330 -0.011508 -0.139939 0.990146 0.005206
-0.040057 -0.012681 0.011955 0.041157 0.006949 0.999129
-0.029044 -0.029844 0.012397 0.464280 0.120180 0.877497
-0.003289 0.017991 -0.017396 -0.025334 0.051001 -0.998377
0.015554 0.033775 -0.020667 -0.065501 -0.100608 -0.992768
0.013540 -0.038317 0.009451 -0.102375 0.389757 0.915210
0.016449 -0.024937 0.009183 0.003805 -0.006597 0.999971
0.001062 0.028462 -0.018565 -0.021608 -0.221561 -0.974907
0.019810 0.025332 0.008865 -0.154549 -0.189670 0.969608
0.005142 0.027390 -0.018385 -0.053342 -0.234533 -0.970643
0.019238 -0.024020 0.008969 0.092878 -0.129482 0.987222
0.018870 -0.009914 -0.017592 -0.227206 0.116640 -0.966836
-0.023270 0.024695 0.009475 0.018198 -0.045553 0.998796
-0.033822 0.015474 0.009396 0.433046 -0.197707 0.879422
-0.029158 -0.031408 0.011040 -0.656916 -0.743561 0.124812
0.000251 -0.042218 -0.013648 0.011335 -0.999719 -0.020800
0.026015 0.032510 -0.017386 0.633946 0.750382 -0.187188
0.014103 0.000388 -0.016855 -0.169021 -0.001126 -0.985612
-0.005964 -0.042250 0.010499 -0.101432 -0.936431 -0.335871
-0.012285 -0.033335 -0.019851 0.219983 0.647708 -0.729440
0.033009 -0.024682 -0.019447 0.718295 -0.477569 -0.505945
-0.029175 -0.022955 -0.020520 0.229974 0.190839 -0.954302
-0.039346 -0.014832 0.003815 -0.936962 -0.349427 -0.001875
-0.041759 0.004397 0.002543 -0.996510 0.083161 0.007186
-0.027851 0.002688 -0.018237 0.308756 -0.022767 -0.950869
0.016533 -0.038705 0.000138 0.401388 -0.915905 -0.002466
0.041845 0.005079 -0.004996 0.994529 0.104334 -0.005045
0.027488 -0.031964 -0.005183 0.660625 -0.750616 -0.012240
-0.021754 -0.026915 -0.018358 0.431017 0.523003 -0.735318
0.010586 -0.040772 -0.016479 0.247026 -0.955722 -0.159916
0.033588 0.024925 0.001033 0.803644 0.594987 -0.012101
0.012198 -0.025626 0.008830 -0.077216 0.206315 0.975434
0.001056 -0.037889 -0.020615 -0.014244 0.074306 -0.997134
0.003018 -0.042090 0.002430 0.102875 -0.994675 0.006172
0.017570 0.025204 -0.018807 0.173947 0.153421 -0.972731
-0.040602 0.010460 -0.000969 -0.964147 0.265352 0.002972
0.014895 -0.030388 0.009416 -0.066842 0.134126 0.988707
0.021155 0.036029 -0.007803 0.470369 0.882469 0.001142
-0.011901 -0.008937 0.008437 0.014481 0.011012 0.999834
0.007499 0.033891 0.009423 0.027411 0.127904 0.991408
0.032745 0.023463 0.009614 -0.293124 -0.202003 0.934491
0.002224 0.028881 0.009075 -0.030590 -0.161218 0.986445
0.019217 0.012354 0.008625 -0.013419 -0.008313 0.999875
0.007189 -0.041525 -0.016143 0.183477 -0.977019 -0.108493
0.028973 0.022709 0.009077 -0.202659 -0.165324 0.965193
0.035031 -0.016223 0.010020 -0.029165 0.010845 0.999516
0.011334 0.029830 -0.018236 0.104811 0.360335 -0.926916
0.030087 0.029071 -0.000854 0.724414 0.689229 -0.013671
-0.030682 -0.028814 -0.012001 -0.735569 -0.677385 -0.009383
0.017447 -0.038415 0.012575 -0.114659 0.056759 0.991782
-0.002420 -0.007351 0.008322 -0.001097 0.004022 0.999991
-0.004645 -0.041862 -0.013799 -0.111169 -0.993601 -0.019981
-0.007945 -0.023608 0.008606 -0.002007 0.009052 0.999957
0.033576 -0.025401 -0.016536 0.796010 -0.592174 -0.125291
0.041549 -0.006740 0.007872 0.987681 -0.155909 0.013324
0.010056 0.007397 0.008431 -0.017125 -0.008300 0.999819
0.040155 0.012734 -0.006091 0.941608 0.336628 -0.007497
0.030093 -0.002565 0.009093 0.090632 -0.016353 0.995750
-0.002196 -0.000483 0.008329 -0.006840 0.007466 0.999949
0.023344 0.002773 0.008672 -0.018931 -0.009514 0.999776
0.020371 0.024418 0.008774 -0.059282 -0.071727 0.995661
0.002041 -0.012574 0.008426 -0.003806 0.014668 0.999885
-0.006165 -0.041655 -0.002406 -0.137523 -0.990322 -0.018688
0.026422 -0.032813 -0.005773 0.626323 -0.779482 -0.011323
0.034596 -0.023882 -0.014143 0.833009 -0.553254 -0.002688
0.008610 -0.041734 0.011986 0.043302 -0.530126 0.846813
-0.004152 0.031345 -0.018465 -0.025829 0.332200 -0.942855
0.002936 -0.017872 -0.017401 -0.003655 -0.070653 -0.997494
0.004896 -0.038198 -0.020720 -0.022747 0.017908 -0.999581
-0.012243 0.016840 0.008555 0.009672 -0.008624 0.999916
0.034872 0.023527 0.010148 0.852147 0.522832 -0.022182
0.004296 -0.041917 0.008929 0.115250 -0.987979 -0.103033
-0.040572 -0.008118 -0.019138 -0.891003 -0.187139 -0.413633
-0.031192 0.008819 -0.017972 -0.355849 0.078928 -0.931204
0.017895 0.001339 -0.017424 0.124670 -0.027132 -0.991827
0.042009 -0.003251 0.011764 0.003282 -0.105655 0.994397
-0.029540 0.005193 -0.018787 -0.045110 -0.010880 -0.998923
0.039566 -0.003490 -0.020748 0.133136 -0.010909 -0.991038
0.006516 0.007180 -0.016738 -0.024180 -0.003722 -0.999701
0.001535 -0.040410 0.009479 0.005260 0.357765 0.933797
0.013496 -0.039916 -0.003136 0.328283 -0.944576 0.002546
0.013125 0.006937 -0.017098 -0.246412 -0.121706 -0.961493
-0.026185 -0.022035 0.009442 0.009115 0.003857 0.999951
-0.038509 0.008902 0.009630 0.077075 -0.049013 0.995820
0.041606 -0.005450 0.009636 0.971658 -0.087379 -0.219648
-0.008549 -0.022456 -0.017967 0.018986 0.088637 -0.995883
-0.033794 0.009432 0.009205 -0.129424 0.032766 0.991048
-0.007375 -0.041452 -0.003872 -0.168761 -0.985592 -0.011327
0.021299 0.022258 -0.018654 0.176915 0.175188 -0.968509
-0.030228 0.012575 0.009028 0.244109 -0.063524 0.967665
0.001036 0.041907 0.007190 0.020776 0.999267 0.032166
0.000690 -0.030828 -0.018776 0.020674 -0.191209 -0.981332
0.003148 -0.008846 0.008380 -0.010926 0.010560 0.999885
0.002590 -0.042174 -0.002052 0.095103 -0.995289 0.018874
0.021726 0.015156 0.008613 -0.029294 -0.012620 0.999491
-0.018853 0.037411 -0.001006 -0.392357 0.919773 -0.008531
0.021965 0.025671 0.009618 -0.019579 -0.105568 0.994219
-0.035961 -0.021772 -0.015656 -0.850627 -0.521501 -0.066866
-0.023444 0.018899 0.009080 -0.053953 0.037909 0.997824
0.037062 0.019670 0.006458 0.868075 0.496420 -0.003710
-0.002764 -0.033403 0.009293 0.041657 0.235009 0.971100
-0.027075 -0.006847 -0.018282 0.274883 0.065301 -0.959258
-0.018272 0.037405 0.009917 -0.391203 0.882255 -0.261888
-0.004656 -0.013062 0.008440 0.005270 0.016316 0.999853
0.009994 -0.034190 -0.019973 -0.262735 0.615697 -0.742891
-0.007717 0.034322 0.009121 -0.037929 0.171762 0.984408
-0.019939 -0.011760 0.008573 0.016572 0.007415 0.999835
-0.021073 0.018856 0.008839 0.139352 -0.109341 0.984188
-0.012925 -0.040033 -0.005339 -0.329837 -0.944024 -0.005174
0.031409 -0.027921 0.009171 0.756724 -0.630771 -0.171743
0.040863 -0.009995 -0.005632 0.972400 -0.233101 0.010127
0.011559 -0.031346 -0.017598 0.025035 -0.008587 -0.999650
-0.041318 -0.006837 -0.013206 -0.987545 -0.157299 -0.003345
0.013374 0.011854 0.008520 -0.024766 -0.014718 0.999585
-0.004152 0.031345 -0.018465 -0.025829 0.332200 -0.942855
-0.018531 -0.013848 0.008561 0.012077 0.015126 0.999813
-0.026885 0.032378 0.012564 0.080235 -0.023084 0.996509
0.037898 -0.017711 -0.015186 0.903661 -0.425758 -0.046110
0.024434 -0.008422 0.008667 0.013956 -0.005148 0.999889
0.003928 0.038914 0.009772 0.033978 0.123859 0.991718
-0.003342 -0.041899 0.011989 0.044340 0.090873 0.994875
0.008209 -0.004772 -0.016730 -0.034551 0.016452 -0.999267
0.000365 -0.013035 0.008425 -0.002472 0.004204 0.999988
-0.016208 0.038556 0.006006 -0.374359 0.927275 0.004120
-0.001852 0.002709 0.008302 -0.019052 0.004966 0.999806
0.005464 -0.023205 -0.018016 -0.021534 0.067749 -0.997470
0.003343 -0.004220 -0.016611 -0.002706 -0.008489 -0.999960
0.003106 0.012925 0.008426 -0.003132 -0.020817 0.999778
-0.021776 0.011994 0.008609 0.007396 0.008322 0.999938
-0.011244 0.037869 -0.020760 -0.094687 0.240097 -0.966120
-0.023180 0.034827 0.007777 -0.548938 0.835784 0.011499
-0.013310 -0.012113 0.008480 0.008556 0.011862 0.999893
0.004448 0.032513 -0.017680 -0.008978 0.076692 -0.997014
0.023386 -0.035007 -0.010440 0.566222 -0.824212 0.008232
-0.021116 0.036131 -0.012158 -0.494958 0.868890 -0.006787
-0.019718 -0.037674 0.010508 -0.408699 -0.850638 -0.330726
-0.007229 0.012834 0.008444 -0.000653 -0.017005 0.999855
0.006611 -0.002480 0.008354 -0.008976 0.007066 0.999935
0.009268 0.003747 -0.016740 -0.028833 -0.009599 -0.999538
-0.026476 -0.012730 -0.018608 0.175020 0.084694 -0.980915
0.010381 -0.035312 0.008990 -0.106993 0.311294 0.944272
-0.021454 -0.028495 0.008974 -0.048018 -0.093672 0.994444
0.026034 -0.009682 0.008784 -0.185666 0.064521 0.980492
0.023755 0.016086 -0.018695 -0.145019 -0.093492 -0.985002
0.023809 -0.029564 -0.020708 -0.025922 0.027728 -0.999279
0.040766 0.012578 0.010886 0.982197 0.185765 -0.027925
0.041388 0.008220 0.001882 0.982232 0.187673 0.000259
-0.029772 -0.001756 0.009114 -0.005818 0.001062 0.999983
0.030029 -0.028923 0.011655 -0.388192 0.421319 0.819632
-0.028116 -0.031286 -0.000799 -0.680313 -0.732802 0.013275
0.029431 0.004643 0.009143 0.038405 0.002836 0.999258
-0.036818 0.019877 0.001869 -0.876222 0.481881 0.005122
0.000689 0.034383 -0.018619 -0.032191 -0.769143 -0.638265
0.018215 0.018138 -0.018085 -0.031141 -0.016086 -0.999386
0.026779 -0.022340 -0.019151 -0.569725 0.451903 -0.686438
-0.006001 0.013140 0.008449 0.009485 -0.010339 0.999902
0.015233 -0.023946 0.008839 -0.118586 0.174631 0.977467
-0.012312 -0.011338 0.008455 0.015077 0.011405 0.999821
-0.016511 0.003816 -0.017401 0.011910 -0.000149 -0.999929
-0.007074 0.041065 0.009211 -0.165396 0.975950 -0.142003
-0.006221 -0.041695 0.003240 -0.151283 -0.988344 -0.017024
0.016747 -0.039651 0.011804 0.358436 -0.884327 0.299148
0.004393 -0.042501 0.012374 0.080092 -0.470243 0.878895
0.038375 0.016877 -0.016202 0.901248 0.422691 -0.095310
0.014039 -0.015111 0.008568 -0.009185 0.017106 0.999811
0.009218 0.039769 0.010316 -0.252914 -0.796407 0.549336
-0.002456 0.006554 -0.016745 -0.002474 -0.026459 -0.999647
0.006302 -0.029897 -0.018949 -0.007052 -0.134778 -0.990851
0.038538 -0.014444 0.010471 -0.876358 0.152651 0.456830
0.017166 -0.033363 -0.020708 -0.061776 0.079279 -0.994936
0.005497 0.000121 -0.016621 -0.037543 -0.008148 -0.999262
0.034111 -0.014823 -0.020767 -0.202375 0.086183 -0.975509
0.008985 -0.018775 -0.017374 -0.046477 0.143833 -0.988510
0.025575 0.033388 -0.005546 0.614801 0.788675 0.003377
-0.013817 -0.008058 0.008433 0.017924 0.009753 0.999792
0.014372 0.039125 -0.012904 0.335446 0.942042 0.005726
0.005947 -0.038744 0.009795 0.060248 -0.068313 0.995843
-0.022168 0.013009 -0.017935 0.027022 -0.001553 -0.999634
-0.014790 0.016075 0.008571 0.008373 -0.005942 0.999947
-0.036532 -0.007001 0.009224 0.267140 0.124024 0.955643
0.031182 0.027844 -0.003167 0.750031 0.661355 -0.007911
0.010343 -0.033382 -0.019069 -0.263764 0.799841 -0.539150
-0.038125 0.017332 -0.006259 -0.898632 0.438610 0.009051
0.029670 -0.021629 -0.020660 -0.259083 0.153531 -0.953575
0.019095 -0.033454 -0.020642 0.007246 0.004209 -0.999965
-0.000310 0.015259 0.008433 0.004056 -0.017068 0.999846
-0.028799 0.006926 -0.018755 0.065343 -0.019160 -0.997679
0.016505 0.021218 0.008612 -0.033943 -0.072571 0.996786
-0.006176 0.011726 0.008444 0.001948 -0.011909 0.999927
0.016831 -0.038521 0.012326 -0.324857 0.409628 0.852451
-0.027288 0.031722 -0.002012 -0.654747 0.755841 0.003378
-0.000909 0.040206 -0.020316 -0.029045 0.608657 -0.792902
0.002553 -0.017482 0.008491 -0.001045 0.024947 0.999688
0.012471 0.009031 0.008481 -0.015693 -0.008308 0.999842
0.001645 0.041909 -0.002336 0.067322 0.997725 -0.003396
0.019415 0.022856 -0.018908 0.027659 0.053128 -0.998205
0.024382 -0.034325 0.006316 0.572176 -0.820112 0.005619
0.001736 -0.042331 -0.007677 0.055439 -0.998424 -0.008752
-0.031646 -0.028744 0.010994 -0.754899 -0.601993 -0.260252
0.004549 0.030462 -0.018679 0.045359 0.208058 -0.977064
0.012930 -0.040018 -0.016751 0.299488 -0.942004 -0.151447
-0.026666 -0.016503 -0.018446 -0.267628 -0.170823 -0.948259
-0.008601 0.027871 -0.018768 0.052245 -0.183090 -0.981707
0.042137 0.002319 0.007213 0.998838 0.046810 0.011488
0.015481 -0.039185 0.008072 0.370069 -0.928907 -0.013446
-0.009218 -0.014996 -0.017348 -0.012956 0.032270 -0.999395
0.036330 -0.006027 -0.020634 -0.277108 0.034248 -0.960228
-0.013580 -0.039363 -0.017889 -0.291168 -0.916342 -0.274842
-0.010234 0.023874 0.008587 0.006306 -0.005041 0.999967
0.000632 0.020165 0.008563 0.005831 -0.027083 0.999616
-0.034998 -0.022197 -0.019047 -0.789813 -0.477753 -0.384639
-0.025546 -0.020073 0.008779 0.186846 0.116927 0.975406
0.040085 0.005308 0.009493 -0.316554 -0.075413 0.945572
-0.039470 -0.003861 -0.020426 -0.182655 0.015033 -0.983062
-0.007374 0.015485 -0.017475 -0.028008 0.008406 -0.999572
0.007545 -0.029950 0.008953 0.058699 -0.198726 0.978296
-0.002377 -0.005173 0.008361 -0.005425 0.008578 0.999948
-0.036779 0.018412 -0.019374 -0.811710 0.410256 -0.415712
-0.014811 0.039056 -0.013944 -0.349345 0.936979 0.005257
0.009376 -0.040254 0.010535 -0.153667 0.883833 0.441844
0.036623 -0.017478 0.009549 -0.307056 0.172477 0.935932
0.002058 -0.024021 0.008604 -0.002083 0.017517 0.999844
0.020322 -0.008630 -0.017834 -0.181080 0.100551 -0.978315
0.037638 0.012798 -0.020782 0.301292 0.099213 -0.948356
0.010268 -0.040934 0.002642 0.259347 -0.965782 0.002040
0.005467 -0.003294 0.008348 -0.002357 0.005577 0.999982
-0.024463 -0.034317 0.004383 -0.580083 -0.814433 0.014221
-0.004933 0.017878 0.008520 0.005163 -0.015182 0.999871
-0.012288 0.009708 -0.017393 0.169094 -0.158937 -0.972700
-0.005031 -0.015702 0.008449 0.009872 0.017502 0.999798
0.017610 -0.012140 0.008578 -0.011368 0.011330 0.999871
-0.016511 0.037549 -0.019312 -0.388358 0.815769 -0.428601
0.009815 0.009174 -0.016712 -0.059238 -0.072502 -0.995608
-0.035295 -0.003629 -0.019672 0.731434 0.042251 -0.680602
-0.001985 -0.023051 -0.017921 0.027329 0.140970 -0.989637
0.017169 0.038055 0.002765 0.407371 0.913153 -0.014171
-0.032859 0.007471 -0.017399 0.195704 -0.034750 -0.980047
-0.024565 0.004914 0.008599 -0.007463 -0.001334 0.999971
0.036821 0.015191 0.009521 -0.207030 -0.092401 0.973961
-0.009520 -0.034876 -0.020350 0.141753 0.421542 -0.895661
0.042392 -0.003143 0.010390 0.972287 -0.162069 -0.168499
-0.006204 0.033192 -0.017765 0.057695 -0.308574 -0.949449
0.023304 0.034913 0.002725 0.562130 0.826968 0.011584
0.009048 0.022338 0.008654 0.006155 -0.017833 0.999822
0.015126 -0.004892 0.008502 -0.020808 0.009629 0.999737
0.004010 -0.037833 -0.020611 -0.041195 0.043953 -0.998184
-0.007333 0.025577 -0.018108 0.002394 -0.163686 -0.986510
0.007981 -0.022712 0.008590 -0.001272 0.017650 0.999843
-0.026747 0.022882 0.009134 -0.029070 0.036374 0.998915
0.012925 -0.040140 0.006402 0.315420 -0.948945 0.003809
-0.024600 0.033976 0.010130 -0.558819 0.749452 -0.355025
0.000039 0.040871 -0.019726 -0.039156 0.826454 -0.561641
0.035024 0.022717 -0.013514 0.832027 0.554727 -0.002853
-0.013604 0.033767 -0.020651 0.214982 -0.215257 -0.952600
0.041095 0.007711 0.011778 -0.398139 -0.080544 0.913782
0.018069 -0.010449 0.008573 -0.011127 0.004844 0.999926
0.011082 -0.008162 -0.016781 -0.107482 0.017445 -0.994054
-0.029309 0.029177 0.011748 0.426473 -0.701639 0.570809
0.038178 -0.015019 0.009997 -0.735457 0.234562 0.635675
0.027507 0.031133 -0.017692 0.626351 0.750416 -0.211092
-0.014722 -0.039420 -0.000348 -0.356827 -0.934163 -0.003846
-0.028849 0.030281 -0.017233 -0.694279 0.680059 -0.235578
-0.004479 -0.039720 0.009483 0.018133 0.158563 0.987182
0.042060 0.000645 -0.010382 0.999988 0.001562 0.004695
-0.024375 -0.011385 0.008583 0.045794 0.010211 0.998899
-0.038844 0.015716 -0.010512 -0.915911 0.400613 -0.024813
0.034822 -0.023681 0.008037 0.836202 -0.547528 0.031288
-0.000904 0.041843 0.012497 0.073857 0.020180 0.997065
0.020115 -0.007971 0.008600 -0.018503 0.003009 0.999824
0.002207 0.003366 -0.016705 0.009478 -0.012001 -0.999883
-0.030343 0.028804 0.002203 -0.722827 0.691025 0.002346
0.012805 -0.012248 0.008514 -0.008471 0.010430 0.999910
0.008825 -0.006320 -0.016773 -0.040960 0.018285 -0.998993
-0.017156 0.034516 -0.020728 -0.043009 0.046906 -0.997973
0.028440 0.007721 0.009164 -0.044043 -0.005135 0.999016
-0.010994 0.025730 0.008728 0.068006 -0.162029 0.984440
0.010316 -0.041578 0.011803 0.098931 -0.855229 0.508720
-0.011020 0.035062 -0.020633 0.074327 -0.210020 -0.974868
-0.009920 0.018340 0.008557 -0.002107 -0.021697 0.999762
0.004902 0.042343 0.011033 0.086615 0.979470 -0.182036
-0.009136 -0.023351 0.008601 0.001840 -0.002207 0.999996
-0.030135 -0.029309 -0.000503 -0.723029 -0.690702 0.012637
-0.013884 0.039406 -0.001772 -0.328946 0.944243 -0.014130
0.039993 -0.013156 -0.005329 0.946772 -0.321809 -0.007819
0.015938 0.031170 0.009340 0.075733 0.199598 0.976947
-0.001567 -0.018359 0.008484 0.005134 0.010565 0.999931
0.029109 0.020855 0.009031 0.028054 0.024228 0.999313
-0.015631 -0.018682 0.008590 0.005977 0.007382 0.999955
0.040986 -0.009494 -0.013070 0.977321 -0.210990 -0.018070
0.006350 -0.010088 0.008407 -0.014418 0.016121 0.999766
0.039553 -0.010871 -0.020001 0.786815 -0.182913 -0.589462
-0.033533 0.024931 0.010016 -0.802569 0.543183 -0.246647
-0.035871 -0.016396 -0.020591 -0.006326 -0.095184 -0.995440
0.007765 0.036020 0.009207 -0.080344 -0.396780 0.914391
0.038174 0.017550 0.008418 0.893079 0.448989 0.028614
-0.025203 0.028277 0.009902 0.142430 -0.137534 0.980203
-0.006627 -0.012864 0.008418 -0.000344 0.016001 0.999872
0.024527 0.007170 -0.018008 -0.079056 -0.033412 -0.996310
0.032793 -0.012260 -0.019304 -0.719578 0.264696 -0.641984
-0.038499 0.016336 0.009996 -0.866425 0.444827 -0.226797
0.027802 0.006820 0.008991 -0.190304 -0.057996 0.980011
0.026642 0.011005 0.009067 -0.153558 -0.066803 0.985879
0.012568 -0.010721 -0.017530 -0.021975 0.103662 -0.994370
-0.009930 -0.010303 -0.016680 0.032712 0.154458 -0.987458
0.042050 -0.001638 -0.014955 0.999172 -0.031355 0.025941
0.002305 0.018890 0.008519 -0.015520 -0.011719 0.999811
0.006046 0.029775 0.009066 0.025722 0.191954 0.981067
-0.026819 0.032921 0.011582 -0.493299 0.865474 -0.087240
0.023091 -0.012217 0.008660 -0.004187 -0.003084 0.999986
-0.041093 0.008581 -0.009637 -0.967948 0.250799 -0.013311
-0.027271 -0.000458 -0.017854 0.217014 -0.007351 -0.976141
-0.002641 -0.035030 -0.019005 0.087783 0.812722 -0.576001
-0.003716 0.040052 -0.020508 -0.101414 0.552610 -0.827247
-0.025029 -0.018463 0.008781 -0.080306 -0.064552 0.994678
0.034786 -0.023707 -0.016183 0.838090 -0.534652 -0.108410
-0.037302 -0.019294 -0.015306 -0.899452 -0.433961 -0.051605
-0.017439 0.031074 0.009035 -0.080133 0.096035 0.992147
0.029501 0.003867 -0.018965 -0.068125 0.034655 -0.997075
0.027358 -0.023092 0.009033 0.116377 -0.113026 0.986753
-0.018752 -0.004202 -0.017114 -0.114477 -0.042854 -0.992501
-0.017256 0.038093 0.002362 -0.429892 0.902869 -0.004613
0.040542 0.011758 0.001238 0.955091 0.296264 -0.005461
-0.008072 0.039265 0.009515 0.066309 -0.287480 0.955489
-0.039896 0.012765 -0.001165 -0.948210 0.317556 0.007406
0.015764 -0.038264 0.010342 -0.321669 0.771812 0.548485
0.010343 -0.033382 -0.019069 -0.263764 0.799841 -0.539150
-0.010594 0.008972 0.008424 0.014632 -0.014292 0.999791
-0.035882 -0.014456 0.009851 0.043871 0.093383 0.994663
-0.007603 -0.036457 0.009235 0.085580 0.320605 0.943339
-0.003439 0.003491 0.008278 0.004190 -0.019630 0.999799
-0.035805 0.021654 -0.012673 -0.857127 0.515106 0.000001
-0.019492 -0.037305 -0.010017 -0.442345 -0.896758 0.012487
-0.026051 -0.024832 0.008876 -0.032317 0.002515 0.999475
0.014409 -0.039611 0.012264 -0.129654 0.209456 0.969184
-0.033815 -0.004990 -0.017604 0.441039 0.096444 -0.892291
-0.026036 0.033230 0.012090 -0.081303 0.472853 0.877382
-0.029769 0.029384 0.004365 -0.708115 0.706096 -0.001189
-0.016869 0.030262 -0.018966 0.345576 -0.704394 -0.620005
-0.001450 0.041691 0.009906 -0.081813 0.963581 -0.254596
0.011005 -0.010949 -0.017257 -0.210998 0.166428 -0.963214
0.037600 0.014320 0.009499 -0.381270 -0.218524 0.898265
0.013060 -0.006605 0.008473 -0.021631 0.010908 0.999707
0.040032 -0.002268 0.009659 -0.205714 -0.058178 0.976881
0.039012 -0.015789 0.002633 0.920716 -0.390109 0.009894
-0.031578 0.000623 -0.018288 -0.319571 -0.014034 -0.947458
-0.034981 0.022736 0.009671 -0.773415 0.562272 -0.292709
-0.036790 0.018116 0.010174 0.717075 -0.301319 0.628498
0.012033 0.025330 0.008810 -0.101615 -0.201886 0.974123
-0.031485 -0.027892 -0.015025 -0.751833 -0.659352 0.001084
0.038480 -0.013356 -0.020336 0.632810 -0.230648 -0.739157
0.032199 -0.026938 0.009382 0.768065 -0.607330 -0.203043
-0.041076 0.008487 0.002291 -0.973341 0.228853 0.015316
-0.035961 -0.021772 -0.015656 -0.850627 -0.521501 -0.066866
0.029385 -0.006618 0.009144 0.092630 0.000086 0.995701
-0.012698 0.039105 0.010601 0.222697 -0.861323 0.456650
-0.001005 -0.000621 -0.016640 -0.014537 0.006545 -0.999873
-0.024175 0.030476 -0.020691 -0.114948 0.115424 -0.986643
-0.009829 -0.040988 -0.008760 -0.222420 -0.974900 -0.009935
0.014396 -0.026957 -0.018894 0.048535 -0.113025 -0.992406
-0.012663 0.039980 0.010249 -0.284144 0.906791 -0.311436
-0.004029 -0.041867 -0.007470 -0.128212 -0.991746 -0.001473
0.032598 -0.013356 0.009259 0.220963 -0.062307 0.973290
-0.009117 0.006763 -0.016700 -0.007854 -0.015588 -0.999848
0.026981 0.017219 0.008765 -0.119733 -0.095326 0.988219
0.001230 0.019059 -0.017419 0.027153 0.007416 -0.999604
-0.030602 -0.015074 -0.017417 0.285990 0.194765 -0.938230
-0.011122 0.040263 0.001008 -0.247256 0.968950 -0.000464
-0.039538 0.005520 0.009554 0.203500 -0.037809 0.978345
-0.018335 -0.010096 0.008553 0.012306 0.010755 0.999866
0.002614 0.008998 -0.016820 -0.013282 -0.001182 -0.999911
0.005041 0.027043 0.008663 -0.047554 -0.137404 0.989373
-0.006476 -0.031273 -0.018392 -0.085480 -0.348111 -0.933548
-0.038844 0.015716 -0.010512 -0.915911 0.400613 -0.024813
-0.019394 -0.004468 0.008505 0.025194 -0.000304 0.999683
-0.013667 -0.004227 0.008357 0.020448 -0.000739 0.999791
-0.004838 -0.029757 0.009142 -0.006434 -0.074234 0.997220
-0.026822 -0.010583 -0.018453 0.319032 0.101578 -0.942285
-0.011772 0.022830 0.008639 -0.020377 0.021993 0.999550
0.018543 0.017275 0.008663 0.009903 0.000334 0.999951
-0.012233 -0.027877 0.009025 -0.032406 -0.125593 0.991552
-0.034011 0.000916 -0.017447 0.352613 -0.026084 -0.935405
0.003515 -0.032954 0.009104 -0.036810 0.302439 0.952458
0.006731 -0.021546 -0.017950 -0.071542 0.165278 -0.983649
-0.033822 0.015474 0.009396 0.433046 -0.197707 0.879422
0.038776 -0.014936 -0.017701 0.918002 -0.344675 -0.196143
-0.007396 0.017431 0.008519 0.005618 -0.030350 0.999524
-0.039540 0.015859 0.010985 -0.881745 0.464453 0.082517
-0.023343 0.025186 -0.018295 0.459001 -0.548598 -0.698827
0.023702 -0.034787 0.007733 0.561912 -0.827173 0.006314
-0.001434 0.041753 -0.009595 -0.057208 0.998351 -0.004802
-0.016739 0.029812 0.009495 -0.023070 0.014775 0.999625
0.003844 0.026220 -0.018141 -0.007743 -0.102234 -0.994730
0.036495 -0.020243 -0.017095 0.891004 -0.442885 -0.099824
-0.013826 0.036899 -0.020715 -0.078662 0.227144 -0.970679
0.041079 0.009771 0.003561 0.974928 0.222189 -0.012153
-0.000265 -0.041748 -0.017868 -0.018278 -0.956469 -0.291260
-0.016224 -0.035680 0.009725 -0.045128 -0.044303 0.997998
-0.024943 0.001249 0.008639 -0.003747 -0.001283 0.999992
-0.017956 -0.025998 -0.018340 -0.190426 -0.252936 -0.948558
-0.015989 -0.029984 -0.017623 0.101259 0.257711 -0.960901
-0.031313 -0.028079 0.009908 -0.721137 -0.614530 -0.319866
0.018504 -0.037825 -0.007131 0.432840 -0.901470 0.000680
-0.037603 -0.015037 0.009716 0.440308 0.253154 0.861419
0.009047 0.040864 0.004120 0.217202 0.976054 -0.011940
-0.002958 0.036830 0.009269 0.051183 -0.445464 0.893836
0.041894 -0.003294 -0.010721 0.994784 -0.101880 0.005038
-0.027978 0.021738 0.009079 -0.068033 0.065017 0.995562
-0.010565 -0.020733 0.008581 0.005432 0.020247 0.999780
-0.017956 -0.025998 -0.018340 -0.190426 -0.252936 -0.948558
0.019502 0.012710 -0.018015 -0.084877 -0.071087 -0.993852
-0.029496 0.030412 0.010600 -0.708085 0.678368 -0.196042
0.017354 -0.030355 -0.018968 -0.390005 0.682209 -0.618455
-0.041903 0.002989 -0.003914 -0.998474 0.053557 0.013491
-0.000828 -0.042182 0.003393 -0.022980 -0.999720 0.005592
0.015218 0.012739 -0.017225 -0.064625 -0.054802 -0.996404
0.017122 0.036002 0.009604 -0.086007 -0.098234 0.991440
-0.006409 -0.041566 0.009165 -0.142074 -0.977142 -0.158143
0.001361 0.007092 0.008354 0.000504 -0.000498 1.000000
-0.041989 0.001120 -0.014150 -0.999813 0.013914 0.013450
-0.035728 0.013874 -0.020571 0.001153 -0.005016 -0.999987
-0.012249 0.038876 -0.019805 -0.251390 0.778675 -0.574865
0.000104 0.041771 -0.010366 -0.004721 0.999854 -0.016420
0.035404 -0.022664 -0.007213 0.850365 -0.525873 0.018352
-0.007386 -0.008179 0.008356 -0.003432 0.004282 0.999985
-0.002792 0.012720 -0.016840 -0.019348 -0.043004 -0.998888
-0.001326 0.010171 -0.016803 -0.001868 -0.014266 -0.999896
-0.015100 0.039918 0.011373 -0.273179 0.961708 -0.022163
