0.227755 0.157848 0.209496 0.764414 0.607172 0.216824
-0.221848 0.161625 0.189729 0.464266 -0.871521 -0.157823
0.061551 0.130786 -0.046483 0.205132 0.000000 -0.978734
0.050482 -0.149955 0.350100 0.244108 0.000000 0.969748
-0.011690 -0.332171 0.353626 0.019298 0.000000 0.999814
-0.231860 -0.000126 0.153816 -0.999653 0.000000 0.026344
0.182204 0.113900 0.016054 -0.635262 0.000000 0.772297
-0.178124 0.164099 0.035649 -0.161494 0.981624 -0.101659
0.021483 -0.135451 -0.277606 0.983609 0.000000 -0.180317
-0.156009 0.162564 0.010583 0.344017 -0.857668 0.382176
-0.201106 -0.014827 0.050073 0.843452 0.000000 0.537205
-0.219307 -0.003891 0.081566 -0.962095 -0.000000 -0.272716
-0.079344 -0.398360 0.341725 -0.205117 0.000000 0.978738
-0.027007 0.153699 -0.044031 -0.000000 1.000000 0.000000
-0.077138 0.116330 0.342188 0.205117 0.000000 -0.978738
-0.187977 0.153699 0.029459 0.846286 0.000000 0.532730
-0.210363 -0.102446 0.064606 -0.843452 0.000000 -0.537205
0.057091 -0.362852 0.348436 -0.244096 -0.000001 -0.969751
-0.232229 0.055521 0.127152 0.962095 0.000000 0.272716
0.231728 0.163103 0.171599 -0.389527 -0.920295 -0.036410
-0.018540 -0.197870 -0.252885 -0.786235 0.183811 0.589956
0.180810 0.080018 0.285010 -0.669097 -0.000000 -0.743175
-0.145378 -0.433254 0.016475 0.000000 1.000000 0.000000
0.019452 0.096147 -0.167539 0.896637 0.396573 -0.196907
-0.010988 -0.053391 -0.240971 -0.376684 -0.310823 0.872639
-0.180267 0.156687 0.277797 -0.685638 0.552440 0.474038
0.019452 -0.269164 -0.251724 0.909134 -0.232153 -0.345805
0.163235 0.023699 0.000450 -0.635262 0.000000 0.772297
0.038059 -0.031052 -0.051407 0.205132 0.000000 -0.978734
0.087956 0.161487 -0.035614 0.213471 0.854679 -0.473238
-0.018093 0.095959 -0.108563 -0.636006 -0.695254 0.334841
-0.088325 0.163103 -0.029849 0.160774 -0.935868 0.313533
-0.225137 -0.157226 0.102134 0.962095 -0.000000 0.272716
0.003582 -0.135451 -0.253813 0.243752 0.000000 0.969838
-0.090923 0.142809 0.336970 0.425882 0.000000 -0.904779
0.017072 -0.139273 0.353071 0.019298 0.000000 0.999814
-0.018540 -0.344307 -0.156243 -0.753179 0.589185 0.292544
-0.010928 -0.135064 -0.255290 -0.376760 -0.104390 0.920410
0.196127 -0.433254 0.271220 0.000000 -1.000000 0.000000
-0.103843 -0.403727 -0.030719 -0.463082 0.000000 -0.886315
0.118987 -0.433254 0.006023 0.000000 1.000000 -0.000000
-0.134305 -0.433254 0.077543 0.000000 1.000000 -0.000000
-0.024014 -0.313554 -0.205724 0.980806 -0.147837 -0.127139
0.186907 0.164076 0.264167 0.261643 0.950672 0.166634
-0.220404 0.121126 0.085437 0.962095 0.000000 0.272716
-0.024494 -0.135451 -0.274357 -0.999009 0.000000 -0.044507
-0.024494 -0.006487 -0.244644 -0.998922 0.025874 -0.038541
-0.212463 0.164099 0.179143 0.197444 0.979962 -0.026278
-0.212153 0.161487 0.078206 -0.532724 0.827416 -0.177729
0.211587 -0.155001 0.246946 0.843452 0.000000 0.537205
-0.036145 0.153699 0.345665 0.000000 -1.000000 -0.000000
-0.130202 0.164325 -0.000356 0.052411 0.993573 0.100331
-0.020998 -0.183708 -0.257542 0.777577 -0.070481 -0.624825
0.100108 0.153699 0.337608 -0.456289 0.000000 -0.889832
-0.021983 -0.199162 -0.257024 0.913840 -0.120793 -0.387692
-0.069587 0.090396 -0.042560 0.244104 0.000000 0.969749
0.160553 0.037106 0.303248 0.669097 0.000000 0.743175
-0.107175 -0.127991 -0.028978 0.463082 0.000000 0.886315
-0.022860 0.017904 0.353564 0.204529 0.000000 -0.978860
-0.063046 -0.433254 -0.014017 0.000000 1.000000 0.000000
0.137523 0.161487 0.293079 0.365504 -0.844708 0.390993
-0.164204 0.163103 0.266693 0.307726 0.927383 -0.212756
0.197661 0.159183 0.080693 -0.753121 0.606028 0.256007
-0.006113 0.134555 -0.114769 -0.213048 0.952090 -0.219395
-0.013924 -0.340907 -0.154540 0.555576 -0.744719 -0.369767
0.077099 -0.126185 -0.043224 0.205132 0.000000 -0.978734
0.043421 -0.433254 0.169955 0.000000 1.000000 -0.000000
0.191105 0.101001 0.024286 -0.816523 0.000000 0.577313
-0.225617 -0.065486 0.103827 0.962095 0.000000 0.272716
0.021959 -0.135451 -0.272422 0.999009 0.000000 0.044507
0.230378 0.163103 0.120221 -0.387302 -0.920511 0.051546
-0.204662 -0.045705 0.055656 -0.843452 0.000000 -0.537205
0.066125 -0.391231 -0.045524 -0.205132 0.000000 0.978734
0.240349 -0.381322 0.159709 0.999655 0.000000 -0.026269
0.208361 0.164099 0.218488 0.186374 -0.980509 0.062178
-0.024494 0.087922 -0.163438 0.998748 -0.044807 0.022248
0.200708 -0.413567 0.264028 0.843452 0.000000 0.537205
-0.187977 0.153699 0.029459 0.846286 0.000000 0.532730
0.240403 -0.420737 0.161747 -0.999655 0.000000 0.026269
-0.231244 -0.377873 0.123677 0.962095 0.000000 0.272716
0.045102 -0.401355 0.351454 -0.244096 -0.000001 -0.969751
0.196979 0.153699 0.214697 0.847533 -0.449151 0.282755
0.224399 -0.391848 0.075275 0.946728 0.000000 -0.322034
-0.018540 -0.376882 -0.050818 0.739952 -0.668390 -0.075676
-0.111571 -0.281529 -0.026682 -0.463082 0.000000 -0.886315
0.213144 -0.364886 0.244503 0.843452 0.000000 0.537205
0.144058 0.149282 -0.015116 -0.425869 0.000000 0.904785
-0.118627 0.153699 0.003885 -0.000000 1.000000 -0.000000
0.005911 0.061791 -0.222167 -0.325983 -0.716769 0.616424
-0.006113 -0.275215 -0.260738 -0.234247 -0.541874 -0.807156
-0.179689 -0.089054 0.279991 0.635251 0.000000 -0.772305
0.239599 -0.272224 0.131150 0.999655 0.000000 -0.026269
-0.011845 0.121872 0.353629 -0.019298 0.000000 -0.999814
0.212710 0.159347 0.146985 -0.651460 0.758489 0.017184
0.240508 -0.367294 0.165749 -0.999655 0.000000 0.026269
0.188417 0.156687 0.022882 -0.685638 -0.552440 0.474038
0.019452 0.131794 -0.053720 0.889400 0.454228 -0.051428
-0.201859 0.156687 0.177750 0.838739 0.532969 -0.111628
0.094288 -0.350172 0.339073 0.244119 0.000000 0.969745
-0.114784 -0.433254 0.099942 0.000000 1.000000 -0.000000
-0.115672 -0.061652 0.325320 -0.425882 0.000000 0.904779
-0.185130 0.060962 0.026896 0.669097 0.000000 0.743175
0.050397 -0.058903 -0.048821 0.205132 0.000000 -0.978734
-0.032906 -0.066764 -0.051794 0.244104 0.000000 0.969749
-0.032324 0.153699 -0.051940 -0.177104 0.000000 -0.984192
-0.214583 0.122249 0.071233 0.843452 0.000000 0.537205
-0.219709 -0.038170 0.215228 -0.946751 0.000000 0.321968
-0.065093 -0.002269 -0.043691 -0.244104 0.000000 -0.969749
0.016008 0.136702 -0.054261 -0.739952 -0.668390 0.075676
-0.162884 0.153699 0.045244 0.000000 1.000000 0.000000
-0.024494 -0.006487 -0.244644 0.998922 -0.025874 0.038541
-0.213950 -0.429474 0.232163 -0.946751 0.000000 0.321968
0.003582 -0.252478 -0.226848 -0.234247 -0.541874 -0.807156
0.016377 -0.148698 -0.284857 0.778145 -0.070547 -0.624110
0.218613 0.159319 0.068960 -0.668167 -0.699528 0.253404
0.027406 0.163103 -0.034260 -0.043188 0.938805 0.341730
-0.211511 -0.347654 0.066409 -0.843452 -0.000000 -0.537205
0.009888 -0.190188 -0.249737 -0.507435 -0.097231 -0.856187
0.188858 0.163103 0.266655 -0.318325 -0.926562 -0.200383
0.002697 -0.034252 -0.052616 0.019299 0.000000 0.999814
0.005911 0.106120 -0.172491 -0.315599 -0.849895 0.421991
0.129651 -0.058551 0.322172 -0.463082 0.000000 -0.886315
-0.191606 -0.334920 0.035156 0.843452 -0.000000 0.537205
-0.021983 -0.071740 -0.257024 -0.913840 -0.120793 0.387692
-0.003212 -0.433254 0.085901 0.000000 -1.000000 -0.000000
-0.011835 0.132577 -0.114305 -0.459907 0.865291 -0.199394
-0.000059 0.107061 -0.172956 0.050599 0.894523 -0.444149
0.003297 0.142988 -0.058919 -0.176780 -0.972915 0.148945
0.016008 0.000759 -0.255438 -0.776953 -0.350905 0.522694
-0.011835 -0.274193 -0.259191 -0.496718 -0.483758 -0.720589
0.056414 -0.433254 0.303271 0.000000 -1.000000 0.000000
0.239590 -0.357604 0.130822 0.999655 0.000000 -0.026269
-0.025624 0.062670 -0.052069 -0.019299 0.000000 -0.999814
0.235684 -0.085034 0.108451 0.946728 0.000000 -0.322034
0.019452 -0.204667 -0.274705 -0.913840 0.120793 0.387692
-0.212139 -0.116221 0.067396 -0.843452 0.000000 -0.537205
-0.087638 -0.432911 0.338516 0.425882 0.000000 -0.904779
0.014306 -0.197452 -0.251531 0.720798 0.206186 0.661768
0.134641 0.156687 0.290022 -0.563543 0.564803 -0.602841
-0.018594 -0.433254 0.185221 0.000000 -1.000000 -0.000000
0.188394 0.156688 0.022864 0.516220 0.582041 -0.628287
0.097634 -0.433254 0.180570 0.000000 1.000000 -0.000000
0.047608 -0.433254 0.071076 0.000000 1.000000 -0.000000
0.029211 0.026118 0.352836 0.019298 0.000000 0.999814
0.040250 0.156687 0.351342 0.143235 0.588135 0.795978
0.021483 0.091196 -0.165063 0.979413 0.180805 -0.089773
-0.185242 0.153699 0.222125 0.834662 0.450706 -0.316547
0.220493 0.156687 0.068263 0.786924 0.540077 -0.298442
0.226143 0.095363 0.080402 0.946728 0.000000 -0.322034
0.033508 -0.203549 0.352753 0.019298 0.000000 0.999814
0.060865 -0.154000 0.347486 0.244108 0.000000 0.969748
0.020856 -0.385254 -0.051747 0.000000 0.151321 -0.988485
-0.046838 -0.433254 0.212663 0.000000 -1.000000 -0.000000
0.136235 -0.104290 -0.018798 -0.425869 0.000000 0.904785
-0.186786 0.156687 0.030194 -0.706775 0.550023 -0.444909
-0.166699 0.164099 0.268396 -0.156014 -0.981848 0.107866
0.153880 0.160057 0.024260 -0.432698 0.732004 0.526253
0.209206 -0.332008 0.250684 -0.843452 0.000000 -0.537205
0.021959 -0.007623 -0.242942 0.998922 -0.025874 0.038541
0.028818 0.163103 -0.045440 -0.043188 -0.938805 0.341730
0.217568 0.163103 0.221583 -0.366170 -0.922495 -0.122163
-0.097120 0.080421 -0.034232 0.463082 0.000000 0.886315
0.204464 -0.092225 0.043180 0.816523 0.000000 -0.577313
0.005911 0.106120 -0.172491 -0.315599 -0.849895 0.421991
-0.043379 -0.226432 0.349274 -0.205704 0.000063 0.978614
0.060270 -0.433254 0.105463 0.000000 1.000000 -0.000000
-0.032655 0.141243 -0.051857 -0.244104 0.000000 -0.969749
-0.034018 -0.285117 0.351232 0.204529 0.000000 -0.978860
0.114865 -0.127652 0.329898 0.463082 0.000000 0.886315
0.042941 -0.001037 -0.050383 -0.205132 0.000000 0.978734
-0.141656 -0.330565 -0.010963 -0.463082 0.000000 -0.886315
-0.206401 0.161487 0.178369 0.562124 0.823663 -0.074813
-0.231327 -0.149481 0.174026 0.999653 0.000000 -0.026344
-0.229582 -0.399962 0.117816 -0.962095 -0.000000 -0.272716
-0.168643 0.163102 0.260406 -0.411162 -0.864020 0.290544
-0.013924 0.032302 -0.196826 -0.569453 -0.623248 0.535991
-0.225963 0.119031 0.196838 -0.946751 0.000000 0.321968
-0.230130 -0.416362 0.184585 0.946751 0.000000 -0.321968
0.033403 -0.433254 0.212425 0.000000 1.000000 0.000000
0.130437 0.153699 0.004145 0.000000 1.000000 -0.000000
0.102870 -0.356054 0.336165 0.463082 0.000000 0.886315
0.177195 -0.161305 0.288265 -0.669097 -0.000000 -0.743175
0.150404 0.163223 0.300791 0.213863 0.947499 0.237714
-0.048215 -0.433254 0.043437 0.000000 1.000000 -0.000000
-0.016838 -0.329215 -0.219188 0.696315 0.544178 0.467991
-0.216741 0.060364 0.074621 0.843452 0.000000 0.537205
0.154893 0.153699 0.304941 -0.000000 -1.000000 -0.000000
-0.105780 -0.431911 0.329977 0.425882 0.000000 -0.904779
0.018244 0.100419 -0.106877 0.841745 -0.526088 0.121229
0.207552 0.153769 0.120084 -0.852450 0.435058 0.289920
0.237610 -0.238552 0.114112 -0.946728 0.000000 0.322034
-0.000820 0.108053 0.353416 -0.019298 0.000000 -0.999814
0.218609 0.036022 0.235921 -0.843452 -0.000000 -0.537205
0.221843 -0.433254 0.067760 -0.935015 0.000000 0.354607
0.205975 -0.054559 0.255759 0.843452 0.000000 0.537205
-0.021983 -0.348632 -0.158370 -0.896637 0.396573 0.196907
-0.036103 0.164378 0.337657 -0.024212 0.993025 0.115391
-0.037399 -0.130348 0.350524 -0.205704 0.000063 0.978614
-0.021983 -0.309511 -0.202242 -0.902821 0.326033 0.280388
0.239399 -0.104913 0.123556 -0.999655 0.000000 0.026269
0.224622 0.162799 0.198665 -0.471437 -0.871729 -0.133554
0.239607 -0.072166 0.176249 -0.962095 -0.000000 -0.272716
-0.002473 -0.135451 -0.253388 -0.056869 0.000000 0.998382
-0.104038 -0.433254 0.156676 0.000000 1.000000 0.000000
-0.155168 0.162995 0.273882 0.327976 0.856115 -0.399373
0.188456 0.160183 0.236136 -0.560408 0.747393 -0.356857
0.137438 0.164099 -0.006366 -0.118395 -0.983175 0.139104
-0.197224 0.163103 0.083197 -0.366170 -0.922495 -0.122163
0.070521 -0.237830 0.345056 0.244096 0.000001 0.969751
0.163695 0.135430 0.000829 -0.635262 0.000000 0.772297
-0.025290 -0.224439 0.353056 -0.204529 0.000000 0.978860
0.103199 -0.292537 0.335993 0.463082 0.000000 0.886315
0.090359 -0.013910 -0.040391 0.425869 0.000000 -0.904785
-0.145049 -0.433254 -0.009190 0.000000 1.000000 0.000000
-0.016838 -0.135451 -0.288207 -0.724822 0.000000 -0.688936
0.205875 -0.429307 0.255915 0.843452 0.000000 0.537205
-0.093907 -0.407151 -0.035911 -0.463082 0.000000 -0.886315
0.237404 0.122745 0.184022 -0.962095 -0.000000 -0.272716
0.111557 -0.340412 0.331626 0.463082 0.000000 0.886315
0.026431 0.153699 -0.026561 0.000000 1.000000 0.000000
0.204752 -0.369847 0.043588 0.816523 0.000000 -0.577313
0.066571 0.156077 -0.019178 0.189753 -0.384874 -0.903253
-0.002473 -0.075002 -0.246540 0.056212 0.296995 -0.953223
-0.146438 0.152067 -0.007940 -0.669097 0.000000 -0.743175
0.227523 -0.307656 0.218878 -0.962095 0.000000 -0.272716
-0.145049 -0.433254 -0.009190 0.000000 1.000000 0.000000
-0.227727 -0.016331 0.191652 0.946751 0.000000 -0.321968
0.021483 0.091196 -0.165063 0.979413 0.180805 -0.089773
-0.185303 -0.422554 0.027052 -0.669097 -0.000000 -0.743175
0.005911 0.133987 -0.114614 0.308596 0.926902 -0.213592
-0.201179 -0.046430 0.250619 -0.816529 0.000000 0.577304
-0.154120 0.015752 0.301023 -0.635251 0.000000 0.772305
0.128370 0.159319 0.004312 -0.446735 0.724524 0.524874
-0.099147 0.050308 -0.033173 0.463082 0.000000 0.886315
0.165332 0.153699 0.038860 0.000000 1.000000 0.000000
0.009405 0.080919 0.353219 -0.019298 0.000000 -0.999814
0.018244 0.100419 -0.106877 -0.841745 0.526088 -0.121229
-0.081675 0.064348 0.341237 0.205117 0.000000 -0.978738
-0.024494 -0.068694 -0.266812 0.998986 -0.013394 0.042989
0.139330 0.163103 -0.008571 -0.234444 -0.932289 0.275451
0.107798 -0.358231 -0.032183 0.425869 0.000000 -0.904785
-0.136410 -0.333715 -0.013704 -0.463082 0.000000 -0.886315
-0.197910 -0.326509 0.045054 0.843452 -0.000000 0.537205
-0.220922 0.148907 0.087263 -0.962095 0.000000 -0.272716
0.128100 -0.220934 0.322983 -0.463082 0.000000 -0.886315
-0.223679 -0.433254 0.201861 0.000000 1.000000 0.000000
0.209847 -0.257934 0.050794 -0.816523 0.000000 0.577313
0.205098 -0.241867 0.044076 -0.816523 0.000000 0.577313
-0.043118 -0.349347 -0.049223 0.244089 -0.000002 0.969753
0.213584 -0.094433 0.056080 0.816523 0.000000 -0.577313
0.142640 0.158176 0.312747 0.382312 0.563840 0.732067
-0.024014 -0.353581 -0.160846 -0.979413 0.180805 0.089773
-0.148310 0.162653 0.296141 -0.327407 0.856776 0.398420
0.194101 -0.433254 0.245702 0.000000 1.000000 0.000000
-0.012438 -0.433254 0.139723 0.000000 1.000000 -0.000000
-0.015955 0.153699 -0.042998 -0.000000 1.000000 0.000000
0.019452 0.131794 -0.053720 -0.889400 -0.454228 0.051428
0.020856 -0.376623 -0.108115 -0.952153 -0.297816 -0.068627
0.085739 0.164099 -0.030700 -0.072580 -0.984298 0.160900
-0.000059 -0.135451 -0.293352 0.056869 0.000000 -0.998382
-0.038063 -0.342253 -0.050495 -0.244104 0.000000 -0.969749
0.144743 -0.428203 -0.014761 -0.635262 0.000000 0.772297
-0.213421 -0.197284 0.233304 0.816529 0.000000 -0.577304
-0.138873 0.079435 0.313564 -0.635251 0.000000 0.772305
0.056069 -0.309202 0.348694 -0.244096 -0.000001 -0.969751
0.240556 0.128123 0.167571 0.999655 0.000000 -0.026269
0.040475 0.153699 0.352619 0.000000 1.000000 0.000000
-0.187669 0.153430 0.029182 0.669097 0.000000 0.743175
0.240090 -0.255261 0.149835 0.999655 0.000000 -0.026269
0.162343 0.071321 -0.000283 0.635262 0.000000 -0.772297
0.239873 -0.419909 0.141584 0.999655 0.000000 -0.026269
-0.232219 -0.100005 0.140198 -0.999653 0.000000 0.026344
0.054873 -0.070719 -0.047882 0.205132 0.000000 -0.978734
0.240169 -0.392289 0.152871 -0.999655 0.000000 0.026269
0.040475 -0.433254 0.352619 -0.177104 0.000000 -0.984192
-0.047455 -0.433254 0.150266 0.000000 -1.000000 -0.000000
0.014602 -0.292064 0.353118 0.019298 0.000000 0.999814
-0.185587 0.164192 0.243198 -0.086245 -0.994405 0.060991
-0.232301 -0.362857 0.137083 -0.999653 0.000000 0.026344
0.208667 -0.012536 0.251532 0.843452 -0.000000 0.537205
0.037924 -0.433254 0.270134 0.000000 1.000000 0.000000
-0.231840 -0.122512 0.154552 -0.999653 0.000000 0.026344
-0.193999 -0.382663 0.038914 0.843452 -0.000000 0.537205
-0.008442 0.091196 -0.104749 0.308596 0.926902 -0.213592
0.186815 0.159319 0.024004 0.578442 0.710961 -0.399924
-0.103697 -0.212382 0.330957 0.425882 0.000000 -0.904779
0.095183 0.164099 0.328014 0.080960 0.984133 0.157884
0.196908 -0.400327 0.269994 -0.843452 0.000000 -0.537205
-0.223356 0.139886 0.204505 0.946751 0.000000 -0.321968
-0.018540 -0.014868 -0.232148 0.776953 0.350905 -0.522694
0.215812 0.161487 0.170128 -0.565205 0.823257 -0.052830
-0.187435 -0.102546 0.028971 -0.669097 0.000000 -0.743175
-0.164076 0.156687 0.044470 -0.706775 -0.550023 -0.444909
0.240627 -0.323538 0.170276 -0.999655 0.000000 0.026269
-0.231213 -0.406739 0.178365 -0.999653 0.000000 0.026344
0.004417 0.041821 -0.235632 -0.161608 -0.543384 0.823782
-0.083768 -0.416109 -0.038991 0.244119 0.000000 0.969745
-0.031822 0.001504 0.351688 -0.205704 0.000063 0.978614
-0.213651 -0.415849 0.232978 0.816529 0.000000 -0.577304
0.083511 -0.373102 0.341786 -0.244119 0.000000 -0.969745
0.098176 0.092263 0.338094 -0.244119 0.000000 -0.969745
-0.020776 0.133729 -0.053952 0.837991 -0.542219 0.061390
0.001082 -0.154718 -0.290996 -0.151690 0.111133 0.982161
-0.039060 -0.108620 0.350174 -0.205704 0.000063 0.978614
-0.044505 0.153699 0.324129 -0.000000 -1.000000 0.000000
0.019452 -0.402695 -0.053720 0.000000 0.151321 -0.988485
0.061855 -0.433254 0.200571 0.000000 1.000000 0.000000
0.025848 -0.394559 0.352901 -0.019298 0.000000 -0.999814
0.160625 -0.160044 0.303183 -0.669097 0.000000 -0.743175
-0.217817 0.153699 0.076310 0.847533 -0.449151 0.282755
-0.162040 0.067227 0.006107 -0.669097 0.000000 -0.743175
0.229618 0.128801 0.211491 0.962095 -0.000000 0.272716
0.201938 0.107883 0.039608 0.816523 0.000000 -0.577313
-0.216475 -0.081202 0.074202 0.843452 0.000000 0.537205
0.100108 0.153699 0.337608 -0.456289 0.000000 -0.889832
-0.212153 0.161487 0.078206 -0.532724 0.827416 -0.177729
-0.002473 -0.195900 -0.246540 0.056212 -0.296995 -0.953223
-0.013018 0.122453 0.353652 -0.019298 0.000000 -0.999814
0.096980 -0.414728 0.338395 -0.244119 0.000000 -0.969745
0.239804 -0.085344 0.138971 -0.999655 0.000000 0.026269
0.087562 0.153699 0.313158 -0.398332 0.487750 -0.776809
-0.172310 -0.288503 0.286061 -0.635251 0.000000 0.772305
0.093837 0.164436 0.325383 0.000000 1.000000 0.000000
0.135471 -0.433254 0.155967 0.000000 -1.000000 0.000000
-0.209583 0.119566 0.238733 -0.816529 0.000000 0.577304
-0.015719 -0.433254 0.052528 0.000000 -1.000000 -0.000000
0.021772 -0.056698 -0.262626 -0.995935 -0.030218 0.084856
0.016492 0.102157 -0.082077 -0.757878 0.644882 -0.098729
0.021959 -0.356858 -0.162471 -0.998748 -0.044807 -0.022248
0.240411 -0.424198 0.173412 0.962095 0.000000 0.272716
0.086896 0.163103 -0.033254 0.144205 0.936487 -0.319682
0.147072 -0.433254 0.088601 0.000000 1.000000 0.000000
0.015807 -0.240885 -0.237687 0.714343 0.234823 0.659221
0.173231 0.082814 0.008673 -0.635262 0.000000 0.772297
-0.208324 -0.278856 0.061405 0.843452 -0.000000 0.537205
0.051796 -0.433254 -0.046630 0.000000 -1.000000 -0.000000
0.005911 0.133987 -0.114614 -0.308596 -0.926902 0.213592
-0.040525 0.142885 -0.049876 0.244104 0.000000 0.969749
0.047897 0.164312 0.338028 -0.028116 -0.993321 -0.111906
-0.207328 -0.395282 0.241921 0.816529 0.000000 -0.577304
-0.081470 0.156687 0.339968 -0.297541 0.582509 0.756407
-0.120219 0.159319 0.296367 0.446735 0.724524 -0.524874
-0.024014 0.042652 -0.205724 -0.980806 -0.147837 0.127139
0.016008 0.127686 -0.113183 -0.745007 -0.650022 0.149788
0.135469 0.164436 -0.004044 0.000000 -1.000000 0.000000
0.034007 -0.314822 0.352744 -0.019298 0.000000 -0.999814
0.015638 -0.232168 -0.052866 -0.019299 0.000000 -0.999814
-0.215721 -0.208226 0.226954 0.946751 0.000000 -0.321968
0.019791 -0.048295 -0.249863 -0.877407 0.161125 -0.451879
0.046079 -0.186014 -0.049726 -0.205132 0.000000 0.978734
0.020856 0.080779 -0.159918 0.954317 -0.267621 0.132880
-0.145049 -0.433254 -0.009190 0.000000 1.000000 0.000000
0.186736 -0.145782 0.279675 0.669097 -0.000000 0.743175
0.147698 0.153699 0.014906 0.000000 -1.000000 -0.000000
0.121215 -0.433254 0.096509 0.000000 1.000000 -0.000000
-0.198622 -0.350197 0.254235 -0.816529 0.000000 0.577304
0.005911 0.004020 -0.260274 -0.337465 -0.524685 0.781552
-0.129686 0.160227 0.009708 -0.455266 -0.732695 -0.505856
-0.180773 -0.100035 0.279100 0.635251 0.000000 -0.772305
-0.219449 0.035013 0.082067 -0.962095 -0.000000 -0.272716
0.005911 -0.207646 -0.284261 -0.346685 0.279018 0.895521
-0.207662 0.161487 0.130551 0.565205 0.823257 0.052830
-0.060124 -0.433254 0.286342 0.000000 1.000000 0.000000
0.003582 0.067246 -0.153186 -0.218160 0.874096 -0.434007
-0.126613 -0.300429 -0.018823 0.463082 0.000000 0.886315
-0.008442 -0.252772 -0.227312 0.337465 -0.524685 -0.781552
-0.174683 -0.372024 0.017490 -0.669097 -0.000000 -0.743175
-0.136496 -0.245562 0.315518 -0.425882 0.000000 0.904779
0.011389 0.131480 -0.114034 0.546039 0.816366 -0.188119
-0.062213 -0.433254 0.217311 0.000000 1.000000 0.000000
0.211248 -0.115163 0.052775 -0.816523 0.000000 0.577313
-0.024014 -0.261387 -0.240118 0.982204 -0.104685 -0.155935
0.235790 0.159319 0.119486 0.714777 0.692852 -0.095129
-0.074197 -0.363394 0.342805 0.205704 -0.000063 -0.978614
-0.212118 0.027202 0.235147 0.816529 0.000000 -0.577304
0.227360 -0.266211 0.083979 -0.946728 0.000000 0.322034
-0.175000 -0.086803 0.283849 0.635251 0.000000 -0.772305
0.011389 -0.402382 -0.114034 -0.546039 0.816366 0.188119
0.222618 0.153699 0.076254 -0.000000 1.000000 0.000000
0.021483 -0.362096 -0.165063 -0.979413 0.180805 0.089773
0.080604 -0.433254 0.312654 0.000000 -1.000000 0.000000
-0.210055 0.028421 0.238064 0.816529 0.000000 -0.577304
0.140852 0.081579 0.316320 0.463082 0.000000 0.886315
-0.205132 0.159319 0.130783 0.718479 0.692299 0.067156
-0.130965 0.069236 0.318122 0.425882 0.000000 -0.904779
0.009304 0.031498 -0.196130 0.482241 -0.664199 0.571212
-0.216344 0.044909 0.225125 0.946751 0.000000 -0.321968
0.010682 -0.299092 -0.241898 0.391120 -0.506821 -0.768217
0.208010 0.102611 0.252563 -0.843452 -0.000000 -0.537205
0.216408 -0.433254 0.106924 0.000000 1.000000 -0.000000
0.172226 0.156687 0.256170 -0.706775 0.550023 -0.444909
0.058178 -0.376465 0.348163 -0.244096 -0.000001 -0.969751
-0.011835 -0.375760 -0.171872 -0.468961 -0.791073 -0.392784
0.139696 0.011598 0.316924 0.463082 0.000000 0.886315
-0.020776 -0.325942 -0.216363 -0.856186 -0.391730 -0.336887
-0.165020 0.066102 0.008790 0.669097 0.000000 0.743175
-0.167786 0.161487 0.042149 0.465419 0.835194 0.292978
0.068384 -0.290814 -0.045051 0.205132 0.000000 -0.978734
0.175411 0.145818 0.010465 0.635262 0.000000 -0.772297
-0.077842 0.164244 0.330068 0.024704 -0.993152 -0.114186
0.011389 -0.206973 -0.282094 0.596163 -0.238824 -0.766520
-0.162884 0.153699 0.045244 0.000000 1.000000 0.000000
-0.086760 -0.388692 0.338929 0.425882 0.000000 -0.904779
0.016055 0.093349 -0.052874 0.019299 0.000000 0.999814
-0.217949 0.049963 0.076776 0.962095 -0.000000 0.272716
0.194730 -0.092125 0.272478 -0.669097 -0.000000 -0.743175
0.231600 -0.054145 0.096444 0.946728 0.000000 -0.322034
-0.026566 0.050953 0.352789 0.204529 0.000000 -0.978860
-0.032022 -0.390486 -0.051946 0.019299 0.000000 0.999814
0.103143 -0.257725 0.336022 -0.463082 0.000000 -0.886315
-0.174148 -0.433254 0.227644 0.000000 1.000000 0.000000
0.141044 -0.433254 0.050424 0.000000 -1.000000 0.000000
0.213401 -0.137030 0.244098 0.843452 -0.000000 0.537205
-0.013924 -0.254072 -0.229247 -0.584425 0.452288 0.673709
0.183581 0.164436 0.263328 0.000000 1.000000 0.000000
0.196802 -0.140846 0.032343 -0.816523 0.000000 0.577313
0.087327 0.142118 -0.041080 0.205132 0.000000 -0.978734
0.021769 -0.319844 -0.207326 0.996456 -0.062768 -0.055997
-0.146439 -0.336777 -0.007938 0.669097 -0.000000 0.743175
0.009304 -0.302400 -0.196130 0.482241 0.664199 0.571212
-0.227234 0.107086 0.193102 -0.946751 0.000000 0.321968
0.164282 0.153699 0.015064 -0.000000 1.000000 0.000000
-0.120881 0.025325 0.322868 0.425882 0.000000 -0.904779
-0.070757 0.153699 0.316214 0.318863 0.491155 -0.810613
-0.006113 -0.207797 -0.284764 0.241091 0.288691 0.926570
0.150441 0.115455 0.311310 0.463082 0.000000 0.886315
0.223173 0.164306 0.141468 -0.101234 0.994859 0.002667
0.021243 0.163096 -0.034131 -0.010376 -0.841997 -0.539383
-0.196411 0.164099 0.226381 -0.182941 -0.980673 0.069380
-0.020985 0.161487 0.348634 0.064122 -0.859335 -0.507377
-0.164483 -0.323277 0.008307 -0.669097 -0.000000 -0.743175
0.222875 -0.368979 0.070793 0.946728 0.000000 -0.322034
-0.209302 0.163103 0.178717 -0.387302 -0.920511 0.051546
-0.214026 0.011964 0.070358 0.843452 0.000000 0.537205
-0.021643 0.153699 0.353818 -0.125383 0.000000 0.992108
-0.232385 0.129589 0.133901 0.999653 0.000000 -0.026344
0.177785 0.130438 0.287733 0.669097 -0.000000 0.743175
-0.227009 0.095305 0.193764 -0.946751 0.000000 0.321968
0.185990 0.017001 0.019168 -0.635262 0.000000 0.772297
0.009304 -0.196558 -0.248668 0.508183 0.256192 0.822263
0.020856 -0.135451 -0.267277 -0.963343 0.000000 -0.268273
-0.138386 -0.410108 -0.012671 0.463082 0.000000 0.886315
0.220538 -0.433254 0.068518 0.000000 1.000000 -0.000000
-0.145205 -0.433254 0.240389 0.000000 1.000000 0.000000
0.137438 0.164099 -0.006366 0.118395 0.983175 -0.139104
-0.222894 -0.055038 0.205863 -0.946751 0.000000 0.321968
-0.024014 0.042652 -0.205724 0.980806 0.147837 -0.127139
0.158210 -0.302883 0.305358 0.669097 0.000000 0.743175
0.021483 -0.203185 -0.269946 0.983232 -0.054246 -0.174106
-0.230832 -0.420431 0.182523 0.946751 0.000000 -0.321968
0.160086 0.093854 -0.002140 -0.635262 0.000000 0.772297
-0.150669 -0.198576 0.303862 0.635251 0.000000 -0.772305
-0.008442 0.099569 -0.050083 0.304383 0.946503 -0.107163
0.218729 0.163103 0.170399 -0.389527 0.920295 -0.036410
-0.003924 0.090978 -0.100815 0.176613 0.972937 -0.148999
0.079441 0.156687 -0.016734 0.334653 -0.581051 -0.741881
-0.157182 0.153699 0.261819 0.000000 -1.000000 0.000000
-0.089520 0.156038 -0.036515 -0.224289 0.391493 -0.892428
-0.203321 0.164436 0.081146 0.000000 -1.000000 0.000000
-0.090534 0.159319 -0.034182 -0.309505 0.734779 -0.603579
-0.231710 -0.422519 0.159487 0.999653 0.000000 -0.026344
0.195659 -0.032456 0.271641 -0.669097 -0.000000 -0.743175
0.036648 0.161487 0.331341 0.090710 -0.858874 0.504090
0.100248 -0.366151 0.337535 0.463082 0.000000 0.886315
-0.008442 -0.018130 -0.227312 0.337465 0.524685 -0.781552
0.157843 -0.194405 0.305688 -0.669097 0.000000 -0.743175
0.073922 -0.383652 0.344200 0.244119 0.000000 0.969745
0.021483 0.049605 -0.211682 0.980806 0.147837 -0.127139
0.207013 -0.427379 0.046785 -0.816523 0.000000 0.577313
-0.118134 0.153699 0.293930 0.000000 1.000000 0.000000
-0.075047 0.156687 0.316639 -0.221688 -0.582644 0.781908
0.016008 -0.371373 -0.169667 0.753179 -0.589185 -0.292544
-0.205132 0.159319 0.130783 -0.718479 -0.692299 -0.067156
-0.072908 -0.283125 0.343074 -0.205117 0.000000 0.978738
0.212571 0.163951 0.201926 0.290550 -0.953307 0.082387
0.169467 0.077808 0.005577 -0.635262 0.000000 0.772297
-0.008442 0.099569 -0.050083 -0.304383 -0.946503 0.107163
0.009955 -0.200354 -0.247730 0.513968 0.287701 0.808125
0.016008 -0.398586 -0.113183 0.745007 -0.650022 -0.149788
0.222644 0.052497 0.229586 -0.843452 -0.000000 -0.537205
0.020856 -0.070829 -0.259965 -0.962527 0.080669 -0.258912
-0.232069 0.101842 0.145877 -0.999653 0.000000 0.026344
-0.111854 0.116112 0.327118 0.425882 0.000000 -0.904779
0.240429 -0.195701 0.162729 -0.999655 0.000000 0.026269
-0.021983 -0.381792 -0.051360 -0.889400 0.454228 0.051428
-0.074667 0.156142 0.316478 0.185460 0.394491 -0.899990
0.219140 -0.201882 0.235087 0.843452 -0.000000 0.537205
0.240005 0.140018 0.174844 0.962095 -0.000000 0.272716
-0.018664 0.159319 0.330258 -0.083857 -0.743435 0.663531
-0.089222 0.049872 -0.037618 -0.244119 0.000000 -0.969745
0.114710 0.052861 -0.028930 0.425869 0.000000 -0.904785
0.230762 -0.310948 0.207453 0.962095 0.000000 0.272716
0.145347 0.156441 0.020829 -0.577769 0.414086 0.703360
-0.231162 -0.041675 0.180278 0.999653 0.000000 -0.026344
-0.023229 -0.425424 0.353487 0.204529 0.000000 -0.978860
-0.070174 -0.433254 0.147988 0.000000 -1.000000 0.000000
0.175250 0.153699 0.031257 -0.000000 -1.000000 0.000000
0.036798 -0.242759 0.352690 -0.019298 0.000000 -0.999814
-0.208672 0.161416 0.072590 0.563132 -0.744614 0.358376
0.070109 -0.278244 -0.044689 0.205132 0.000000 -0.978734
0.018643 -0.115476 -0.281271 -0.777496 -0.070559 0.624917
0.029410 0.159319 -0.050122 -0.083857 -0.743435 0.663531
0.029410 0.159319 -0.050122 0.083857 0.743435 -0.663531
-0.219641 -0.363501 0.082746 0.962095 -0.000000 0.272716
0.101084 -0.417143 -0.035343 -0.425869 0.000000 0.904785
0.240390 -0.185091 0.161254 -0.999655 0.000000 0.026269
-0.202328 -0.051419 0.248994 0.816529 0.000000 -0.577304
-0.035497 -0.433254 0.088026 0.000000 1.000000 0.000000
0.042740 -0.433254 -0.027259 0.000000 1.000000 -0.000000
-0.183076 0.161487 0.032516 -0.465419 0.835194 -0.292978
0.233185 -0.433254 0.131034 0.000000 1.000000 -0.000000
0.018445 0.070385 -0.198447 -0.803169 -0.444501 0.396659
-0.125685 -0.433254 0.195202 0.000000 -1.000000 -0.000000
0.239291 0.043996 0.119454 -0.999655 0.000000 0.026269
-0.088420 -0.372555 -0.037820 0.244119 0.000000 0.969745
-0.221588 -0.376396 0.089615 0.962095 -0.000000 0.272716
0.062418 0.160464 -0.042023 -0.144078 -0.711515 0.687741
-0.032324 -0.433254 -0.051940 0.177104 0.000000 0.984192
-0.018664 0.159319 0.330258 -0.083857 -0.743435 0.663531
-0.164204 0.163103 0.266693 -0.307726 -0.927383 0.212756
0.223733 -0.409862 0.073316 0.946728 0.000000 -0.322034
-0.212144 0.163965 0.175022 -0.299547 -0.954049 0.007873
0.018474 -0.129252 -0.052921 0.019299 0.000000 0.999814
0.018244 -0.371319 -0.106877 0.841745 0.526088 0.121229
-0.075175 0.164099 0.326041 0.064378 0.984414 -0.163659
-0.119005 0.156687 0.294936 -0.533701 -0.567421 0.627053
0.141086 -0.102147 0.316198 0.463082 0.000000 0.886315
0.123142 -0.433254 0.069146 0.000000 -1.000000 -0.000000
-0.081470 0.156687 0.339968 0.297541 -0.582509 -0.756407
-0.120219 0.159319 0.296367 0.446735 0.724524 -0.524874
-0.228362 -0.130332 0.113513 -0.962095 0.000000 -0.272716
-0.203886 0.159319 0.178021 -0.714777 -0.692852 0.095129
-0.023644 0.053620 0.353400 -0.204529 0.000000 0.978860
-0.126794 -0.062842 -0.018728 -0.463082 0.000000 -0.886315
-0.201623 0.153699 0.131131 -0.892384 -0.443502 -0.083412
0.153175 0.019204 0.309882 0.463082 0.000000 0.886315
-0.024494 -0.264417 -0.244644 -0.998922 -0.025874 -0.038541
-0.000059 -0.333459 -0.222824 0.052453 -0.757142 -0.651141
0.011389 0.131480 -0.114034 0.546039 0.816366 -0.188119
-0.083930 -0.155019 0.340262 0.425882 0.000000 -0.904779
-0.204478 -0.105476 0.245953 -0.816529 0.000000 0.577304
0.223913 0.164436 0.121072 0.000000 -1.000000 0.000000
-0.178588 0.138175 0.280897 0.635251 0.000000 -0.772305
-0.023388 -0.322058 -0.213036 0.957298 0.219195 0.188507
0.112379 -0.249581 -0.030027 0.425869 0.000000 -0.904785
-0.024494 -0.393360 -0.052675 -0.998644 -0.051733 -0.005857
0.228952 -0.353027 0.088660 -0.946728 0.000000 0.322034
-0.078746 0.163103 0.333933 0.127951 -0.936923 -0.325276
-0.162019 -0.146379 0.294526 0.635251 0.000000 -0.772305
-0.109151 -0.261183 0.328390 0.425882 0.000000 -0.904779
-0.080007 0.156687 -0.013639 0.372028 0.578988 0.725512
0.090037 -0.144999 -0.040512 0.205132 0.000000 -0.978734
-0.020735 -0.243599 -0.239517 -0.783150 0.208828 0.585720
0.025760 -0.329344 0.352903 0.019298 0.000000 0.999814
-0.021480 0.156687 0.352542 0.101333 -0.588924 -0.801810
0.240109 -0.173755 0.174477 -0.962095 -0.000000 -0.272716
-0.187977 0.153699 0.029459 0.751399 -0.460076 0.473000
0.020856 0.105723 -0.108115 0.938118 -0.335835 0.084552
0.084532 0.164436 -0.028031 0.000000 -1.000000 0.000000
-0.182977 -0.058356 0.024957 0.669097 0.000000 0.743175
0.237030 0.159129 0.173185 0.763434 0.608543 0.216435
-0.050214 0.162191 0.326985 -0.110618 -0.842520 0.527184
-0.079224 -0.204597 -0.040135 -0.244119 0.000000 -0.969745
-0.232461 -0.293641 0.130984 -0.999653 0.000000 0.026344
-0.074015 0.163103 0.323449 -0.127951 -0.936923 0.325276
0.172406 -0.163053 0.292577 0.669097 0.000000 0.743175
-0.011835 -0.207271 -0.283061 -0.508183 -0.256192 -0.822263
0.083753 -0.081578 0.341725 -0.244096 -0.000001 -0.969751
-0.000059 -0.062974 -0.285151 0.056212 0.296995 -0.953223
0.151970 -0.352018 0.310511 0.463082 0.000000 0.886315
0.239280 0.153699 0.119022 0.991260 0.000000 -0.131926
-0.020988 0.133165 -0.054731 -0.901114 0.428591 -0.065604
0.018244 -0.198651 -0.255400 -0.871396 -0.145930 -0.468373
0.164394 0.161766 0.030315 0.327975 -0.856116 -0.399372
-0.199201 -0.002028 0.047082 -0.843452 0.000000 -0.537205
0.121815 -0.325330 -0.025586 0.425869 0.000000 -0.904785
-0.002473 -0.369404 -0.049967 0.000000 -0.151321 0.988485
0.115763 -0.141405 -0.028434 0.425869 0.000000 -0.904785
0.005911 -0.404889 -0.114614 -0.308596 0.926902 0.213592
0.155984 -0.345536 0.307362 0.669097 0.000000 0.743175
-0.219878 -0.309991 0.083582 0.962095 -0.000000 0.272716
-0.175431 0.164436 0.037352 0.000000 -1.000000 0.000000
0.014306 -0.135451 -0.258572 0.724822 0.000000 0.688936
-0.120622 -0.148800 -0.021953 -0.463082 0.000000 -0.886315
-0.005302 -0.433254 0.171290 0.000000 1.000000 -0.000000
0.225667 0.140575 0.224840 -0.843452 -0.000000 -0.537205
0.144967 0.065389 -0.014576 0.635262 0.000000 -0.772297
-0.192117 0.159319 0.084899 -0.679311 -0.697978 -0.226634
0.072744 -0.433254 0.156120 0.000000 1.000000 0.000000
-0.081470 0.156687 0.339968 0.297541 -0.582509 -0.756407
-0.026897 -0.160465 -0.052045 -0.019299 0.000000 -0.999814
-0.135170 -0.354276 -0.014352 -0.463082 0.000000 -0.886315
0.125129 -0.221333 -0.024026 -0.425869 0.000000 0.904785
0.153455 -0.385372 0.309639 0.669097 0.000000 0.743175
-0.146495 -0.431787 -0.007888 0.669097 -0.000000 0.743175
-0.028107 0.159319 -0.028495 0.118583 0.742753 0.658981
0.020856 -0.135451 -0.267277 0.963343 0.000000 0.268273
-0.019512 -0.165289 -0.257770 -0.777577 0.070481 0.624825
-0.193192 0.161599 0.251631 -0.408649 0.865772 0.288868
-0.139405 0.163103 -0.003155 0.248477 -0.931454 0.265805
-0.005948 -0.413415 -0.062870 -0.080366 -0.985288 -0.150826
0.228705 0.009749 0.214710 -0.962095 0.000000 -0.272716
0.240102 -0.333857 0.150294 0.999655 0.000000 -0.026269
-0.179979 -0.361504 0.022258 -0.669097 -0.000000 -0.743175
-0.114224 0.100249 0.326002 0.425882 0.000000 -0.904779
-0.169738 -0.256067 0.288177 -0.635251 0.000000 0.772305
0.092129 0.091448 -0.039558 0.425869 0.000000 -0.904785
0.210170 -0.223680 0.051251 0.816523 0.000000 -0.577313
0.089753 0.156792 0.313565 0.381122 -0.569534 0.728269
-0.089384 0.075857 -0.037577 -0.244119 0.000000 -0.969745
-0.225347 -0.329906 0.102873 0.962095 -0.000000 0.272716
-0.180366 -0.049477 0.022606 0.669097 0.000000 0.743175
-0.147794 -0.383411 -0.006718 0.669097 -0.000000 0.743175
-0.019435 -0.331496 0.353775 0.019298 0.000000 0.999814
-0.207505 0.163216 0.185110 0.286821 0.953011 -0.097487
-0.192995 0.157889 0.258242 0.655451 -0.596451 -0.463283
-0.149173 -0.330371 -0.005477 -0.669097 -0.000000 -0.743175
0.017334 0.087830 -0.052899 -0.019299 0.000000 -0.999814
-0.016838 0.101863 -0.170364 0.683268 -0.653990 0.324719
-0.141207 -0.062816 -0.011198 -0.463082 0.000000 -0.886315
0.217076 -0.432222 0.238329 -0.843452 0.000000 -0.537205
0.240593 0.079826 0.169003 0.999655 0.000000 -0.026269
-0.197076 0.026859 0.043745 0.843452 0.000000 0.537205
0.083583 0.153699 -0.036207 -0.000000 -1.000000 0.000000
0.207508 0.164187 0.068930 -0.086522 -0.994369 0.061191
-0.028498 0.161487 -0.030662 -0.090710 -0.858874 -0.504090
0.081720 0.153699 0.323284 -0.000000 -1.000000 -0.000000
-0.191990 0.089774 0.035760 -0.843452 0.000000 -0.537205
0.040175 0.055403 -0.050963 0.205132 0.000000 -0.978734
0.084160 0.145032 -0.041744 -0.205132 0.000000 0.978734
0.016008 -0.135451 -0.286814 0.789718 0.000000 -0.613471
-0.230334 0.153699 0.161845 0.000000 1.000000 0.000000
-0.141175 -0.216030 0.311671 0.635251 0.000000 -0.772305
-0.206294 -0.125824 0.058217 0.843452 0.000000 0.537205
-0.134074 0.153720 0.316648 -0.389798 0.402838 0.828118
0.053130 -0.113142 0.349433 -0.244108 0.000000 -0.969748
-0.178443 -0.433254 0.083172 0.000000 -1.000000 -0.000000
-0.205132 0.159319 0.130783 0.718479 0.692299 0.067156
-0.017775 -0.433254 0.254070 0.000000 1.000000 -0.000000
-0.091958 0.153699 -0.036929 -0.456289 0.000000 -0.889832
-0.016838 0.138282 -0.054455 -0.668577 0.738922 -0.083661
0.240562 0.094550 0.167807 0.999655 0.000000 -0.026269
-0.136499 0.153699 0.315517 -0.648148 0.000000 0.761514
-0.083048 0.163103 -0.019558 0.160774 0.935868 0.313533
0.181326 -0.085755 0.284546 -0.669097 -0.000000 -0.743175
-0.135677 0.090785 0.315904 0.425882 0.000000 -0.904779
-0.208397 0.152142 0.061520 0.843452 0.000000 0.537205
-0.191413 -0.227667 0.034854 -0.843452 -0.000000 -0.537205
0.120870 0.072334 0.326761 -0.463082 0.000000 -0.886315
-0.193114 -0.433254 0.125330 0.000000 1.000000 0.000000
-0.178665 0.159319 0.276675 0.578442 -0.710961 -0.399924
-0.060904 -0.150374 -0.044746 0.244104 0.000000 0.969749
-0.013924 -0.016832 -0.229247 0.584425 0.452288 -0.673709
0.240556 0.136429 0.167563 0.999655 0.000000 -0.026269
0.009304 0.031498 -0.196130 -0.482241 0.664199 -0.571212
0.026479 -0.433254 -0.021087 0.000000 -1.000000 0.000000
-0.021480 0.156687 0.352542 -0.101333 0.588924 0.801810
-0.014253 -0.382807 -0.052289 -0.019299 0.000000 -0.999814
-0.150243 -0.401282 -0.004513 0.669097 -0.000000 0.743175
0.031053 -0.433254 0.158428 0.000000 1.000000 0.000000
0.216647 0.125743 0.060411 0.816523 0.000000 -0.577313
0.083881 0.128684 0.341693 -0.244108 0.000000 -0.969748
0.106977 0.023587 -0.032570 0.425869 0.000000 -0.904785
0.198249 0.107474 0.034390 -0.816523 0.000000 0.577313
0.035944 0.156687 0.327433 -0.143235 0.588135 -0.795978
0.149393 0.161487 0.305807 -0.365504 -0.844708 -0.390993
0.183004 -0.028217 0.283035 0.669097 -0.000000 0.743175
0.018244 0.076024 -0.157558 -0.847758 0.475048 -0.235871
0.143458 0.164436 0.299423 0.000000 1.000000 0.000000
0.019018 0.047377 0.353033 0.019298 0.000000 0.999814
0.117044 -0.341106 0.328759 0.463082 0.000000 0.886315
0.234271 -0.161852 0.104297 0.946728 0.000000 -0.322034
0.088602 -0.172290 -0.040813 -0.205132 0.000000 0.978734
0.155034 -0.433254 0.011772 0.000000 -1.000000 -0.000000
0.226289 -0.344961 0.223233 0.962095 0.000000 0.272716
0.198462 0.153699 0.076813 0.000000 -1.000000 -0.000000
0.044273 -0.031550 -0.050104 0.205132 0.000000 -0.978734
0.235790 0.159319 0.119486 -0.714777 -0.692852 0.095129
0.240081 -0.423112 0.149499 -0.999655 0.000000 0.026269
0.131371 -0.433254 0.106187 0.000000 -1.000000 0.000000
0.190503 -0.433254 0.116386 0.000000 1.000000 0.000000
-0.123917 -0.050753 0.321439 -0.425882 0.000000 0.904779
-0.151191 -0.432886 0.303433 -0.635251 0.000000 0.772305
-0.181327 -0.419067 0.278644 -0.635251 0.000000 0.772305
-0.183842 -0.048099 0.025736 0.669097 0.000000 0.743175
-0.058272 -0.433166 0.346157 -0.205704 0.000063 0.978614
0.106877 -0.433254 0.123968 0.000000 -1.000000 -0.000000
-0.172691 -0.360731 0.285748 -0.635251 0.000000 0.772305
-0.134479 -0.398578 0.316468 -0.425882 0.000000 0.904779
0.224665 -0.250328 0.226413 -0.843452 -0.000000 -0.537205
0.181454 -0.433254 0.228360 0.000000 1.000000 0.000000
-0.054762 0.162813 0.327025 0.110618 0.842520 -0.527184
0.073342 -0.433254 0.255375 0.000000 1.000000 0.000000
-0.008161 0.000852 0.353558 -0.019298 0.000000 -0.999814
0.239063 0.103915 0.178169 -0.962095 -0.000000 -0.272716
-0.024275 0.044783 -0.207848 0.996108 0.048515 -0.073582
0.091291 0.035854 0.339827 0.244096 0.000001 0.969751
-0.124994 -0.187378 -0.019668 -0.463082 0.000000 -0.886315
-0.130927 -0.433254 0.303712 0.000000 -1.000000 0.000000
0.000612 -0.409143 -0.093135 0.176938 -0.972899 -0.148865
0.082670 -0.433254 0.055981 0.000000 1.000000 0.000000
0.225356 0.122963 0.225329 -0.843452 -0.000000 -0.537205
-0.012587 -0.071677 -0.248174 0.376684 0.310823 -0.872639
0.211050 0.159247 0.119927 0.753121 -0.606028 -0.256007
-0.031706 0.159715 -0.028005 0.170951 0.711789 0.681272
0.046811 -0.127818 -0.049572 -0.205132 0.000000 0.978734
0.121333 -0.289318 0.326518 -0.463082 0.000000 -0.886315
0.011389 -0.063927 -0.282094 0.596163 0.238824 -0.766520
-0.024143 -0.011935 -0.242482 -0.995892 -0.030416 0.085283
-0.218017 -0.382629 0.220203 -0.946751 0.000000 0.321968
0.021470 -0.172207 0.352986 0.019298 0.000000 0.999814
-0.185211 -0.319061 0.273204 0.816529 0.000000 -0.577304
0.186194 -0.049349 0.280163 0.669097 -0.000000 0.743175
-0.193483 0.163103 0.225259 -0.359596 -0.923088 0.136378
-0.185652 -0.382814 0.272580 -0.816529 0.000000 0.577304
-0.008442 0.067755 -0.153418 0.315599 0.849895 -0.421991
0.208722 0.059555 0.049202 -0.816523 0.000000 0.577313
0.152275 0.156687 0.308863 0.563543 0.564803 0.602841
-0.127214 -0.418727 -0.018509 0.463082 0.000000 0.886315
0.015571 -0.058073 -0.052864 0.019299 0.000000 0.999814
-0.002026 -0.429604 0.353439 0.019298 0.000000 0.999814
-0.032324 0.153699 -0.051940 0.177104 0.000000 0.984192
-0.213759 0.164099 0.129970 0.198613 0.979902 0.018564
-0.206432 0.164099 0.080102 0.186374 -0.980509 0.062178
-0.023388 -0.390361 -0.111287 -0.952153 -0.297816 -0.068627
0.111821 0.087768 0.331488 -0.463082 0.000000 -0.886315
0.187613 0.153699 0.061630 0.000000 -1.000000 -0.000000
-0.080727 0.159319 0.338343 -0.247073 0.737860 0.628106
-0.149061 0.124484 -0.005578 -0.669097 0.000000 -0.743175
-0.226436 -0.236172 0.195448 0.946751 0.000000 -0.321968
0.018244 0.100419 -0.106877 -0.841745 0.526088 -0.121229
-0.035269 -0.292537 -0.051199 -0.244104 0.000000 -0.969749
0.128861 -0.180661 -0.022269 -0.425869 0.000000 0.904785
0.186274 0.164099 0.265030 0.161494 0.981624 0.101659
-0.018540 0.073405 -0.156243 0.753179 0.589185 -0.292544
0.107949 0.115085 0.333511 0.463082 0.000000 0.886315
-0.185130 0.159319 0.031239 0.597027 -0.708743 0.375823
-0.032324 0.153699 -0.051940 0.177104 0.000000 0.984192
0.236588 -0.307158 0.186900 0.962095 0.000000 0.272716
-0.014091 0.158078 0.329349 0.016472 -0.550650 0.834574
0.239352 0.098441 0.121766 -0.999655 0.000000 0.026269
-0.018540 -0.197870 -0.252885 0.786235 -0.183811 -0.589956
0.025121 -0.379801 -0.053049 -0.019299 0.000000 -0.999814
0.016703 -0.078074 0.353078 0.019298 0.000000 0.999814
-0.218668 -0.119060 0.218290 -0.946751 0.000000 0.321968
0.014883 -0.433254 0.238171 0.000000 -1.000000 0.000000
0.177449 0.164436 0.030465 0.000000 -1.000000 0.000000
-0.077009 0.100230 0.342215 0.205117 0.000000 -0.978738
-0.180648 0.107711 0.279203 0.635251 0.000000 -0.772305
0.037097 0.163103 0.333856 -0.061113 0.938577 -0.339616
0.239536 -0.367681 0.128760 0.999655 0.000000 -0.026269
0.098164 0.108376 0.338097 0.244119 0.000000 0.969745
0.025358 0.135769 -0.053053 0.019299 0.000000 0.999814
-0.122528 -0.433254 0.001417 0.000000 -1.000000 -0.000000
0.228090 0.121229 0.086125 0.946728 0.000000 -0.322034
0.221909 0.164099 0.170709 -0.198613 0.979902 -0.018564
-0.023388 0.051157 -0.213036 0.957298 -0.219195 0.188507
-0.174559 -0.357468 0.017379 -0.669097 -0.000000 -0.743175
0.240461 -0.007083 0.173237 -0.962095 -0.000000 -0.272716
-0.193483 0.163103 0.225259 0.359596 0.923088 -0.136378
-0.024014 0.042652 -0.205724 0.980806 0.147837 -0.127139
0.152275 0.127814 0.310352 0.463082 0.000000 0.886315
-0.218162 0.143333 0.077528 -0.962095 0.000000 -0.272716
-0.024014 -0.387409 -0.051979 0.000000 0.151321 -0.988485
0.019452 0.122863 -0.112061 -0.892190 -0.440126 0.101421
-0.231068 0.156687 0.128346 -0.842829 0.532384 -0.078780
-0.046602 -0.068028 0.348587 -0.205117 0.000000 0.978738
-0.120728 0.153701 0.009131 0.423940 0.404126 0.810529
-0.024099 0.089935 -0.164026 -0.982221 0.169137 -0.081457
-0.024494 -0.135451 -0.274357 -0.999009 0.000000 -0.044507
0.188821 0.030009 0.021497 -0.635262 0.000000 0.772297
0.019452 -0.066236 -0.274705 0.913840 0.120793 -0.387692
-0.187807 0.129709 0.269532 0.816529 0.000000 -0.577304
-0.021983 -0.071740 -0.257024 0.913840 0.120793 -0.387692
0.083213 -0.433254 0.320283 0.000000 -1.000000 0.000000
-0.203177 -0.126633 0.053324 -0.843452 0.000000 -0.537205
-0.021983 -0.199162 -0.257024 0.913840 -0.120793 -0.387692
0.083325 0.164099 -0.025361 0.072580 -0.984298 -0.160900
0.029114 -0.412202 -0.053126 -0.019299 0.000000 -0.999814
-0.232294 -0.351015 0.137351 0.999653 0.000000 -0.026344
0.021483 -0.004597 -0.247469 0.982204 0.104685 -0.155935
0.128370 0.159319 0.004312 0.446735 -0.724524 -0.524874
-0.141914 0.096661 -0.010828 -0.463082 0.000000 -0.886315
-0.013924 0.032302 -0.196826 0.569453 0.623248 -0.535991
-0.082154 0.153800 0.341049 0.389919 -0.402334 -0.828306
-0.159883 0.006051 0.004165 -0.669097 0.000000 -0.743175
-0.099045 0.058704 0.333147 -0.425882 0.000000 0.904779
0.030073 -0.433254 0.322457 0.000000 -1.000000 0.000000
-0.181141 -0.433254 0.253461 0.000000 -1.000000 -0.000000
0.021959 -0.356858 -0.162471 0.998748 0.044807 0.022248
-0.209418 0.163103 0.079096 -0.366170 0.922495 -0.122163
-0.023388 -0.322058 -0.213036 0.957298 0.219195 0.188507
-0.045991 -0.054013 -0.048500 0.244104 0.000000 0.969749
0.016008 -0.135451 -0.286814 0.789718 0.000000 -0.613471
-0.024494 0.113689 -0.109933 -0.998684 0.049972 -0.011516
0.240327 0.046387 0.158847 0.999655 0.000000 -0.026269
-0.140873 -0.281703 0.311919 0.635251 0.000000 -0.772305
-0.232004 -0.056045 0.126359 0.962095 0.000000 0.272716
-0.142836 0.159319 -0.006830 0.472365 -0.722176 0.505305
0.234945 -0.139231 0.192696 0.962095 -0.000000 0.272716
0.240056 0.112837 0.148547 0.999655 0.000000 -0.026269
-0.030833 0.075006 -0.051969 -0.019299 0.000000 -0.999814
-0.020638 -0.395902 -0.112002 0.758492 0.644182 0.098586
-0.018540 -0.014868 -0.232148 -0.776953 -0.350905 0.522694
0.110375 -0.189829 -0.030970 0.425869 0.000000 -0.904785
-0.031396 0.161487 -0.046756 -0.090710 0.858874 -0.504090
-0.084336 0.164099 -0.022073 -0.080960 -0.984133 -0.157884
-0.016838 0.001562 -0.256638 0.710139 -0.392430 0.584552
0.075853 -0.384690 0.343714 -0.244119 0.000000 -0.969745
0.137269 0.041380 -0.018312 -0.425869 0.000000 0.904785
-0.156898 0.021149 0.001478 0.669097 0.000000 0.743175
0.014306 -0.015671 -0.230949 -0.710139 0.392430 -0.584552
-0.041521 -0.113761 0.349657 0.205704 -0.000063 -0.978614
0.047145 0.152430 0.350940 -0.244108 0.000000 -0.969748
-0.154920 0.164371 0.018092 0.073820 -0.993897 0.081967
0.067809 -0.308138 -0.045171 0.205132 0.000000 -0.978734
-0.020776 0.055040 -0.216363 -0.856186 0.391730 -0.336887
-0.196797 -0.171465 0.256816 -0.816529 0.000000 0.577304
0.189984 0.138377 0.022700 -0.816523 0.000000 0.577313
0.070673 -0.433254 0.323012 0.000000 1.000000 0.000000
0.002121 -0.055403 0.353359 -0.019298 0.000000 -0.999814
-0.028498 0.161487 -0.030662 -0.090710 -0.858874 -0.504090
0.240684 0.153699 0.172450 -0.892384 -0.443502 -0.083412
0.152493 0.108980 -0.008386 -0.635262 0.000000 0.772297
0.205168 -0.315999 0.257025 0.843452 0.000000 0.537205
-0.231126 0.153699 0.181657 -0.991260 0.000000 0.131926
0.146113 0.089763 0.313571 -0.463082 0.000000 -0.886315
0.227554 -0.368687 0.218770 -0.962095 0.000000 -0.272716
-0.166379 -0.160156 0.010013 -0.669097 -0.000000 -0.743175
-0.020776 -0.368754 -0.168391 0.847758 0.475048 0.235871
-0.004886 -0.403688 0.353495 -0.019298 0.000000 -0.999814
0.124705 -0.377128 0.324757 0.463082 0.000000 0.886315
0.213385 -0.392628 0.244124 -0.843452 0.000000 -0.537205
-0.016838 -0.135451 -0.288207 0.724822 0.000000 0.688936
-0.069590 -0.156705 -0.042560 0.244089 -0.000002 0.969753
0.053054 -0.263370 0.349452 0.244108 0.000000 0.969748
0.180053 0.164099 0.028686 -0.156014 -0.981848 0.107866
-0.199468 0.164436 0.227541 0.000000 -1.000000 0.000000
0.018244 -0.257546 -0.234392 0.864869 0.279805 0.416786
-0.139912 -0.424998 0.312710 0.635251 0.000000 -0.772305
0.011389 -0.330859 -0.220580 -0.569453 0.623248 0.535991
0.222675 0.159319 0.223286 -0.679311 -0.697978 -0.226634
-0.110845 0.153699 0.310204 0.000000 -1.000000 -0.000000
-0.232410 0.153513 0.132923 -0.999653 0.000000 0.026344
-0.011835 -0.063633 -0.283061 -0.508183 0.256192 -0.822263
0.001827 -0.105295 0.353365 0.019298 0.000000 0.999814
-0.024494 -0.264417 -0.244644 -0.998922 -0.025874 -0.038541
