-0.006453 -0.014347 -0.003249 -0.958538 0.268029 0.096778
0.013349 -0.067134 0.005402 -0.225974 0.475198 0.850366
0.003832 0.008979 0.007053 -0.172727 0.025409 0.984642
-0.038689 -0.000842 0.000167 -0.572514 0.818906 0.040264
-0.037905 -0.007073 -0.006293 0.362930 -0.562538 -0.742854
-0.037445 -0.001342 0.006362 -0.277353 0.410923 0.868457
0.002797 0.001303 -0.005485 0.149314 -0.360577 -0.920701
0.018409 0.020780 0.005030 0.771996 -0.162306 0.614556
0.022229 0.088728 0.002643 -0.017188 0.007671 0.999823
-0.002012 -0.008529 0.006019 -0.631272 -0.346233 0.693988
-0.030292 -0.049346 -0.004635 0.291181 -0.615964 -0.731985
0.027830 -0.052437 -0.001066 0.926680 -0.359474 -0.109736
-0.002476 -0.040198 -0.005489 0.414904 -0.054993 -0.908202
0.005464 0.042199 0.004084 -0.764610 0.566087 0.308085
-0.050624 -0.043551 -0.006271 -0.487701 -0.370908 -0.790301
-0.015127 -0.036297 0.004783 0.248052 -0.150955 0.956913
-0.006613 -0.062760 0.005276 -0.828643 -0.374918 0.415676
0.000818 0.017856 0.005613 -0.463963 0.081065 0.882137
0.000293 -0.018085 0.007278 -0.295180 0.057499 0.953710
-0.026819 -0.047207 -0.004740 0.370587 -0.481735 -0.794101
0.018898 0.006487 -0.002873 0.960781 0.194915 -0.197252
-0.009750 -0.055500 -0.007102 -0.737077 -0.171004 -0.653816
0.000772 -0.046264 -0.001753 0.862116 -0.230127 -0.451440
-0.000615 0.001459 -0.006696 -0.228577 0.005844 -0.973508
0.000938 0.029269 -0.001845 -0.914291 0.385221 -0.125203
0.018275 0.011678 -0.002463 0.973152 0.057250 -0.222929
0.002390 -0.014070 0.007530 -0.118286 0.014646 0.992872
0.028632 0.077198 0.000738 0.659269 -0.135942 0.739516
-0.000769 -0.061538 -0.005013 0.747827 0.458298 -0.480331
0.006320 -0.066006 -0.003124 0.195932 0.950728 -0.240263
0.006668 -0.020639 0.000159 0.956863 -0.074933 -0.280709
-0.041494 -0.003433 0.004697 -0.608344 0.736822 0.294978
-0.042525 -0.043609 0.003061 0.214652 0.303246 0.928421
0.001618 0.003830 0.006831 -0.215515 0.047309 0.975354
0.010901 0.021033 0.007411 0.066805 -0.025847 0.997431
-0.048009 -0.030705 0.001498 0.923503 0.079986 0.375160
0.003049 -0.017366 -0.004383 0.496686 -0.086075 -0.863651
-0.001595 -0.027387 -0.005768 0.300315 -0.039916 -0.953004
-0.017319 0.004347 -0.006288 0.060207 0.099717 -0.993193
-0.027607 0.005870 -0.001227 -0.474553 0.880156 -0.011200
-0.019074 0.000618 0.006284 0.034809 0.039525 0.998612
0.026708 -0.015096 -0.005506 0.607173 0.288724 -0.740256
-0.000327 0.025881 -0.003737 -0.763249 0.475191 -0.437772
0.000768 -0.016975 0.007315 -0.253734 0.079236 0.964023
0.020186 -0.065336 -0.002647 0.741818 -0.655768 -0.140264
0.021389 -0.001558 0.003595 0.914926 0.398102 0.066528
0.027668 -0.039290 -0.005406 -0.272393 0.012520 -0.962105
0.003468 0.010815 0.006930 -0.204606 0.034327 0.978242
0.005739 -0.011989 0.007163 0.481546 -0.178794 0.857989
-0.021034 -0.014135 0.001690 -0.847052 -0.509943 0.149872
0.031365 -0.030719 0.004982 0.930699 0.036667 0.363944
-0.003410 0.015677 -0.004932 0.049909 0.015511 -0.998633
0.018276 -0.062028 -0.005813 -0.367917 0.352288 -0.860541
0.030083 -0.021360 0.000870 0.963609 0.265834 -0.028120
0.010982 0.008035 -0.005768 -0.198944 0.386926 -0.900394
0.003928 -0.070287 -0.007341 -0.070578 -0.585570 -0.807544
0.024050 -0.013196 -0.005850 -0.174094 -0.034911 -0.984110
0.002418 -0.038645 0.005524 0.634223 -0.196245 0.747830
-0.050443 -0.013659 0.000538 -0.873113 0.484903 0.050429
-0.049702 -0.046958 -0.003163 -0.702754 -0.649817 -0.289611
0.000728 0.026904 0.004285 -0.781393 0.280958 0.557215
-0.038571 -0.007867 -0.006014 0.402857 -0.583091 -0.705486
0.006098 -0.028096 0.003384 0.967778 -0.139921 0.209351
0.035294 0.099893 -0.001855 0.040964 0.015519 -0.999040
-0.007366 -0.062738 0.001894 -0.902256 -0.400930 0.158710
-0.009161 -0.007566 -0.005001 0.757811 -0.373332 -0.535113
0.014731 0.063379 -0.000313 -0.776157 0.281890 -0.564020
-0.033817 -0.044804 -0.004306 -0.048567 0.467216 -0.882808
0.033778 0.109574 0.002546 0.507622 -0.074802 0.858327
-0.029464 -0.007680 0.004120 -0.035151 -0.551908 0.833164
-0.016237 0.004736 -0.006185 0.062287 0.096225 -0.993409
-0.004501 0.021008 0.002027 -0.764445 0.643232 0.043325
0.003805 -0.005424 0.007514 -0.095274 0.043199 0.994513
0.000110 0.013345 0.005672 -0.440289 0.091200 0.893212
0.029140 0.078703 -0.001935 0.005799 0.000236 -0.999983
0.025110 0.076598 0.002780 -0.024129 0.001373 0.999708
0.003035 -0.067493 -0.007445 0.230160 0.359408 -0.904352
0.040779 0.124036 -0.000010 0.957672 -0.138986 0.252085
0.008288 -0.065800 -0.000439 -0.011111 0.998627 -0.051201
-0.029319 -0.051313 0.001136 0.395802 -0.912310 -0.105029
0.030607 0.086195 0.000606 0.526827 -0.117730 0.841780
-0.012458 -0.001856 0.005944 0.096154 0.006651 0.995344
0.033812 0.102578 0.000818 0.567794 0.002677 0.823167
0.018001 0.044029 0.003862 0.499999 0.738932 0.451642
0.022229 0.088728 0.002643 -0.017188 0.007671 0.999823
0.015414 0.031624 0.005384 -0.214191 0.289179 0.933005
-0.003216 -0.035717 0.007048 -0.226584 0.045697 0.972919
-0.002409 -0.015597 0.004440 -0.782868 0.174543 0.597204
-0.011172 0.015134 0.001134 -0.564108 0.824011 0.052802
0.028683 0.074997 -0.001949 0.003237 -0.004989 -0.999982
0.018409 0.020780 0.005030 0.771996 -0.162306 0.614556
-0.043224 -0.041238 0.002280 0.381336 0.515092 0.767634
-0.032897 0.002750 0.002210 -0.503778 0.861754 0.059901
-0.005621 0.019759 0.001391 -0.722601 0.690330 0.035939
0.020183 0.001787 0.002015 0.949246 0.307103 0.067971
-0.037730 -0.006775 0.005620 0.191939 -0.364058 0.911384
0.026131 -0.032573 0.002237 -0.965308 -0.007211 0.261013
-0.020940 -0.008797 0.004900 -0.176572 -0.261782 0.948838
0.029140 0.078703 -0.001935 0.005799 0.000236 -0.999983
0.013279 0.000044 -0.006593 0.149324 0.090737 -0.984616
-0.027676 -0.041321 0.002654 -0.287531 0.362758 0.886415
-0.021721 -0.031606 -0.000960 -0.813882 0.448267 -0.369666
-0.009387 -0.011636 0.003504 0.998124 -0.059399 -0.014807
-0.014487 0.003967 0.005895 0.044703 0.055614 0.997451
0.020608 0.028314 0.000720 0.976914 -0.180817 -0.113775
-0.001877 -0.043804 -0.004905 0.523891 -0.070958 -0.848825
0.002900 -0.007193 -0.006810 0.177363 -0.223621 -0.958403
-0.054882 -0.031148 0.004034 -0.943504 -0.015976 0.330977
0.012874 0.034484 0.005377 -0.022596 0.029124 0.999320
-0.006853 -0.055613 0.006590 -0.331337 -0.025050 0.943180
-0.009770 -0.010144 -0.002028 0.965417 -0.216076 -0.145881
-0.028702 -0.001236 -0.007242 0.065733 -0.227370 -0.971587
0.013941 0.067316 0.002183 -0.825086 0.374177 0.423349
-0.005723 0.019303 -0.003326 -0.689879 0.684931 -0.234383
-0.001910 -0.057262 -0.004439 0.832333 0.146274 -0.534627
-0.032771 -0.040824 -0.000572 -0.240270 0.970693 0.005080
-0.045721 -0.007623 0.004628 -0.708530 0.651038 0.272279
-0.018359 0.003014 -0.006489 0.059406 0.101391 -0.993071
0.012971 0.051646 -0.001987 -0.015921 0.028769 -0.999459
0.030120 0.106627 0.000031 -0.586957 0.212714 -0.781175
0.015049 0.008936 -0.005462 0.234750 0.075644 -0.969108
0.001681 -0.026742 -0.004461 0.473771 -0.059316 -0.878648
-0.015844 -0.012233 0.005146 -0.181116 -0.138244 0.973697
0.016177 0.000689 0.006882 0.176320 0.085527 0.980610
0.003035 -0.067493 -0.007445 0.230160 0.359408 -0.904352
0.011259 0.029121 -0.006651 0.119247 0.434449 -0.892768
0.024363 0.094393 0.000390 -0.137290 0.095522 -0.985914
0.014394 -0.006859 0.005463 -0.073608 -0.757532 0.648635
0.013591 0.062639 0.002664 -0.107647 0.044192 0.993207
-0.005864 0.014912 0.005043 0.043033 0.026894 0.998712
0.021369 -0.055248 0.003676 -0.721432 0.363074 0.589672
0.011384 0.052601 0.002572 -0.049580 -0.002954 0.998766
0.020911 0.047561 -0.001893 -0.001535 -0.006375 -0.999979
0.005141 -0.006965 -0.006191 0.294299 -0.375044 -0.879051
0.024761 0.085576 0.002725 -0.024820 0.011977 0.999620
-0.004769 -0.007836 0.000802 -0.873045 -0.404923 0.271716
0.003263 -0.040995 0.002968 0.936580 -0.298839 0.183067
-0.012300 -0.024652 -0.004263 0.830201 -0.209599 -0.516561
-0.049863 -0.029516 -0.004745 0.784706 -0.002872 -0.619862
0.009729 -0.003500 -0.006637 0.147761 -0.412276 -0.898997
-0.009597 -0.057022 -0.005961 -0.949817 -0.279563 -0.140326
-0.005677 -0.010403 -0.003256 -0.994998 0.086072 0.050704
-0.045803 -0.020914 -0.000408 0.871327 -0.465399 -0.155539
-0.031929 -0.040963 -0.001603 -0.254675 0.839006 -0.480843
0.017650 0.055989 -0.002000 0.010477 -0.009414 -0.999901
0.022859 -0.050705 0.002949 -0.814861 0.329018 0.477230
-0.022939 -0.044797 0.004464 -0.106675 0.061933 0.992363
0.003393 -0.003806 -0.007074 -0.092311 0.033271 -0.995174
-0.027746 -0.008357 0.003800 -0.080600 -0.625354 0.776168
0.001233 -0.023528 -0.004884 0.406826 -0.048591 -0.912212
0.030050 0.119218 0.001111 -0.908499 0.273031 -0.316361
-0.007823 -0.006854 0.004768 0.704087 -0.439295 0.557926
-0.010984 -0.029875 -0.001178 -0.209640 -0.417553 -0.884138
0.035104 0.110977 0.001197 0.604485 -0.149855 0.782395
0.029433 -0.047498 -0.001255 0.956538 -0.268365 -0.114087
0.009579 0.018932 0.007439 0.025765 -0.010818 0.999609
0.018355 0.072432 -0.001373 -0.723680 0.205705 -0.658766
-0.001907 0.023897 0.004460 -0.564279 0.489859 0.664551
0.002999 -0.000581 -0.006525 -0.378283 0.410830 -0.829530
-0.022085 -0.039869 0.003919 -0.250314 0.196410 0.948033
-0.028138 0.005171 -0.004721 -0.438535 0.868591 -0.230729
0.015414 0.052151 -0.001981 0.006569 -0.009844 -0.999930
0.001049 -0.021407 0.007420 -0.093908 0.001609 0.995580
-0.053393 -0.037409 -0.006515 -0.595969 -0.157778 -0.787354
0.013749 0.024239 0.007214 0.173758 -0.059083 0.983014
-0.048048 -0.028708 -0.001591 0.950727 -0.026909 -0.308859
-0.048476 -0.022426 -0.004583 0.765710 -0.251498 -0.591977
-0.019982 -0.008340 -0.004693 -0.412876 -0.418043 -0.809181
-0.048362 -0.042001 -0.006296 0.299737 0.193599 -0.934172
-0.005009 0.010382 -0.005082 0.098239 -0.004802 -0.995151
-0.003799 -0.012841 -0.006191 -0.231860 0.080300 -0.969429
0.024982 -0.020597 0.004665 -0.823152 -0.264515 0.502447
-0.004403 -0.056481 -0.006892 0.533352 0.129968 -0.835849
0.033010 0.083822 -0.001932 0.501535 -0.107675 -0.858411
-0.007671 -0.032142 0.002654 -0.781415 0.150158 0.605676
-0.053617 -0.022959 -0.005741 -0.906757 0.229051 -0.354017
0.025685 -0.028461 0.001181 -0.988100 -0.101313 0.115736
-0.010032 -0.011064 -0.002896 0.977002 -0.108991 -0.183271
0.031217 -0.039389 0.001309 0.992701 -0.116717 -0.030364
0.000678 -0.047472 -0.001302 0.904731 -0.223159 -0.362852
0.020326 0.001673 0.000853 0.947052 0.310930 0.080090
0.018486 0.052616 0.002726 -0.025639 -0.005483 0.999656
0.008324 0.044652 -0.003218 -0.453003 0.870048 -0.194432
-0.031214 0.003561 0.003840 -0.490455 0.864262 0.111820
0.012247 0.008438 0.007100 0.141122 0.019948 0.989791
0.020800 0.087007 0.002662 -0.252601 0.071325 0.964938
-0.002805 -0.029093 0.006803 -0.475947 0.037506 0.878674
0.015474 -0.008508 0.001934 -0.292225 -0.954574 0.058248
0.025888 -0.039888 0.002892 -0.902382 0.134140 0.409527
-0.023698 -0.009343 0.004080 -0.272110 -0.488005 0.829341
0.012245 0.050677 -0.002034 -0.081584 0.023728 -0.996384
-0.031999 -0.046124 -0.005069 -0.041055 0.332748 -0.942122
0.029153 0.088906 0.002763 0.296559 -0.077544 0.951861
0.029448 -0.047854 -0.000161 0.956603 -0.274560 -0.097611
0.034795 0.114292 -0.001744 -0.262959 0.123639 -0.956852
-0.009725 -0.019128 0.004331 0.938444 -0.138960 0.316249
-0.008018 -0.019207 -0.002233 -0.798235 0.514458 -0.313295
-0.008635 -0.053074 0.004542 -0.901236 -0.020781 0.432830
0.031052 0.079801 -0.001937 0.103086 -0.000810 -0.994672
0.032980 0.108089 0.002713 0.293305 -0.056519 0.954347
0.024077 -0.045419 0.001073 -0.946723 0.285142 0.149699
0.024836 -0.043648 0.002183 -0.925681 0.228042 0.301847
-0.001361 -0.035147 0.007284 -0.033150 0.003509 0.999444
-0.045133 -0.037156 -0.000122 0.809156 0.570093 0.142341
0.003768 -0.033093 -0.002013 0.779244 -0.143956 -0.609963
-0.009966 -0.004857 -0.005719 0.220286 -0.005315 -0.975421
0.027380 -0.014411 -0.002233 0.916430 0.375503 -0.138399
0.024524 0.062800 0.002652 0.514165 -0.142865 0.845709
0.026098 -0.034667 0.002119 -0.957180 0.022531 0.288617
-0.041204 -0.014823 0.001162 0.684592 -0.710117 0.164522
0.004068 -0.027506 -0.002737 0.692317 -0.100239 -0.714597
-0.015837 -0.017509 -0.004878 -0.635220 -0.073889 -0.768788
0.007050 -0.017325 0.003709 0.953243 -0.128430 0.273559
0.027244 0.097392 -0.000894 -0.769464 0.314225 -0.556046
-0.010069 0.015893 0.001599 -0.596573 0.799606 0.068782
0.010995 0.053356 -0.000050 -0.765085 0.253358 -0.591992
-0.031371 -0.006271 -0.004310 0.183026 -0.658609 -0.729887
-0.011226 -0.019669 -0.004156 0.850928 -0.123797 -0.510486
-0.014349 -0.017803 0.004877 -0.252269 -0.074105 0.964815
-0.023153 0.008246 -0.000458 -0.472046 0.881362 0.019327
0.001291 0.029460 0.002357 -0.937892 0.333809 0.094497
0.021565 -0.001310 -0.001135 0.922766 0.383016 -0.042448
-0.005844 0.011479 -0.005155 0.069935 0.020130 -0.997348
0.028885 0.066064 0.000232 0.652940 -0.156445 0.741076
0.015092 0.002391 -0.006023 0.206857 0.097936 -0.973457
-0.007294 -0.036535 -0.006974 0.035132 0.024578 -0.999080
0.019999 -0.006636 0.006854 0.029353 -0.066498 0.997355
0.019141 0.070051 -0.002050 -0.169838 0.029610 -0.985027
0.006149 -0.026091 0.000317 0.954454 -0.122666 -0.271976
0.036544 0.124443 0.000302 -0.423826 0.159709 -0.891552
0.010228 0.023291 -0.007128 0.036952 -0.018538 -0.999145
-0.012564 -0.025493 -0.004348 0.723364 -0.220993 -0.654146
-0.009849 0.015513 0.004596 -0.441738 0.637837 0.630897
0.019398 0.064997 -0.002018 0.014621 0.000802 -0.999893
0.023590 -0.058316 -0.005750 0.359708 -0.221287 -0.906445
0.019013 0.082723 0.002584 -0.384633 0.139499 0.912468
0.014026 -0.066471 -0.006475 -0.044774 0.347097 -0.936760
0.029051 0.108253 0.000286 -0.013137 0.019792 -0.999718
-0.019524 -0.007833 0.005360 -0.130002 -0.184375 0.974220
0.023415 0.081571 0.002710 -0.022527 0.009442 0.999702
0.003307 -0.001520 0.007279 -0.106274 0.043294 0.993394
0.012261 -0.071411 -0.000344 0.353396 -0.931962 -0.080981
0.011271 0.048212 -0.001986 -0.050321 -0.043926 -0.997767
-0.032260 -0.004602 -0.005892 0.229467 -0.590155 -0.773991
-0.006748 -0.062007 -0.007565 -0.515616 -0.295784 -0.804147
0.003606 -0.072053 0.001903 -0.291395 -0.956581 0.006412
0.032017 0.100273 0.002607 0.461652 -0.107367 0.880539
-0.054329 -0.035584 0.004715 -0.783110 -0.140849 0.605722
0.014373 0.056671 -0.002033 -0.127355 0.058562 -0.990127
-0.026427 0.003670 0.006264 -0.011600 0.115021 0.993295
-0.044390 -0.042056 -0.004465 0.359939 0.431765 -0.827057
-0.048172 -0.025478 0.002535 0.830021 -0.181915 0.527231
-0.009597 -0.057466 -0.004577 -0.952088 -0.295772 -0.077765
-0.029755 0.002509 -0.007046 -0.070160 0.303228 -0.950332
0.022190 -0.008665 -0.005902 0.016583 -0.024635 -0.999559
0.002900 -0.007193 -0.006810 0.177363 -0.223621 -0.958403
0.005669 -0.071836 -0.003975 -0.110039 -0.971433 -0.210261
-0.015379 -0.024711 0.004328 -0.330657 0.009779 0.943700
0.028585 0.063546 -0.000593 0.975793 -0.211493 0.055663
-0.011273 -0.048793 -0.003734 -0.994402 -0.100731 -0.031915
-0.033032 -0.001282 -0.007482 0.052591 -0.020857 -0.998398
-0.010386 -0.046517 0.000699 -0.925067 0.007060 0.379739
0.026153 -0.031725 0.002400 -0.962491 -0.039377 0.268440
0.003162 0.029051 -0.005491 -0.421386 0.082119 -0.903156
-0.000411 -0.053740 0.002144 0.975334 -0.144092 0.167214
-0.002776 -0.045076 0.007087 0.157083 -0.068801 0.985186
0.026708 -0.015096 -0.005506 0.607173 0.288724 -0.740256
-0.009469 -0.037687 0.001337 -0.870358 0.081311 0.485661
0.018400 -0.060348 0.003764 -0.615567 0.456793 0.642197
-0.041216 -0.014921 0.000234 0.698698 -0.710880 -0.080441
-0.007124 -0.027975 0.002282 -0.760995 0.154612 0.630064
-0.036716 -0.042147 -0.002309 0.018041 0.764167 -0.644766
-0.008112 0.016526 -0.004821 -0.370939 0.532518 -0.760808
0.016223 -0.061323 0.001750 -0.716624 0.610542 0.337178
0.014030 0.062159 0.000302 -0.674954 0.178395 -0.715970
0.001250 -0.068262 0.006400 0.098994 0.118319 0.988029
-0.007649 -0.033981 0.003113 -0.783996 0.146312 0.603277
0.025728 -0.056966 -0.001884 0.887864 -0.444531 -0.118703
-0.003390 -0.051537 -0.005530 0.621928 0.027228 -0.782601
-0.015952 -0.023585 0.004111 -0.368500 -0.007814 0.929595
0.019141 0.070051 -0.002050 -0.169838 0.029610 -0.985027
0.038498 0.108040 -0.000514 0.986239 -0.165263 0.004649
0.013784 0.066730 0.000873 -0.804712 0.130516 -0.579141
0.012811 0.012183 -0.004877 0.377777 -0.068104 -0.923389
-0.015237 0.012586 -0.000566 -0.511617 0.858762 -0.027858
0.020758 0.038085 0.006134 0.697963 0.053605 0.714124
-0.017451 -0.009936 0.005260 -0.150342 -0.167569 0.974329
-0.052041 -0.017454 0.003738 -0.911699 0.382103 0.151003
0.022244 -0.061517 -0.005583 0.597190 -0.386809 -0.702669
0.028357 -0.044515 0.005614 -0.022362 -0.019926 0.999551
-0.002779 -0.059492 0.005832 0.603334 0.092507 0.792105
0.022191 0.093063 0.000303 -0.510825 0.160116 -0.844643
0.015260 0.045762 0.002739 0.173704 0.584451 0.792618
0.028222 -0.044284 -0.005400 0.226632 -0.025240 -0.973653
-0.002570 -0.010863 0.003355 -0.850627 -0.168291 0.498108
-0.019005 -0.004913 -0.006723 -0.225256 -0.272388 -0.935449
0.025888 -0.033645 0.001244 -0.987479 0.013472 0.157172
0.032118 0.098921 0.002290 0.620398 -0.118033 0.775355
0.022425 -0.051831 -0.003600 -0.838100 0.361227 -0.408783
-0.006832 -0.064315 -0.000524 -0.845606 -0.533671 -0.012087
-0.011081 -0.025934 -0.003120 0.407240 -0.160305 -0.899143
0.024093 0.083020 -0.002014 -0.057128 0.016532 -0.998230
0.004493 0.007348 0.007180 -0.125375 0.016525 0.991972
0.023225 0.066668 -0.001970 0.006934 0.000958 -0.999975
-0.011555 -0.030940 -0.000651 0.506366 -0.809963 -0.295894
0.006766 -0.019124 0.000077 0.951241 -0.104958 -0.290041
0.020421 0.029247 0.004660 0.878203 -0.194926 0.436765
0.024221 0.056394 0.000903 0.696104 -0.188403 0.692780
0.023556 0.052378 0.000529 0.632540 -0.147767 0.760302
0.011882 -0.064952 0.001697 -0.448158 0.861799 0.237605
-0.045156 -0.043205 -0.005316 0.332255 0.375039 -0.865421
0.029140 0.078703 -0.001935 0.005799 0.000236 -0.999983
0.028353 0.079571 0.002054 0.744278 -0.152564 0.650211
0.018803 0.006288 0.003656 0.965483 0.204917 0.160787
0.019259 -0.066499 -0.001701 0.709851 -0.695595 -0.110719
0.022110 0.064469 0.002820 -0.023838 -0.000337 0.999716
0.023510 -0.047118 0.000828 -0.942152 0.313493 0.118623
0.031459 -0.029211 0.001264 0.994540 0.094441 -0.044390
-0.033939 -0.002674 0.006360 0.089116 -0.204488 0.974804
-0.046350 -0.022098 -0.000173 0.907242 -0.406304 -0.108760
0.025898 -0.036838 0.001828 -0.967004 0.069449 0.245112
-0.048335 -0.031887 0.002256 0.817703 0.094767 0.567786
0.018939 0.084528 0.001893 -0.913794 0.298047 0.275949
-0.005629 0.016460 0.004984 0.029998 0.025831 0.999216
-0.004383 -0.017730 0.002603 -0.776923 0.236895 0.583328
-0.001822 -0.004411 -0.005698 -0.579066 0.585370 -0.567473
0.026668 -0.019193 0.006380 -0.215178 -0.124836 0.968563
-0.012683 -0.032148 0.004290 0.807504 -0.279123 0.519641
-0.001687 -0.063739 -0.007493 0.332577 0.259299 -0.906729
0.011980 0.060898 0.001720 -0.965524 0.251943 0.065489
-0.043187 -0.039923 -0.002378 0.499663 0.655169 -0.566648
0.008943 -0.008031 -0.003810 0.441538 -0.592886 -0.673446
0.031328 -0.038258 0.002932 0.994377 -0.090355 0.055232
0.015256 0.009038 0.006424 0.289738 0.059543 0.955252
-0.029141 0.004855 0.002561 -0.488558 0.869895 0.067783
0.012682 -0.001113 -0.006780 0.118494 0.067692 -0.990645
-0.009261 -0.027422 0.000260 0.228058 -0.091038 0.969382
0.006675 -0.012232 -0.002826 0.681602 -0.332065 -0.652036
-0.033863 0.000786 0.006441 -0.219865 0.335679 0.915958
0.003410 0.037655 0.003501 -0.961218 0.204719 0.184797
-0.002448 -0.052368 -0.004706 0.716455 -0.010782 -0.697550
-0.053878 -0.022429 -0.003651 -0.958304 0.255033 -0.128884
0.025069 0.051196 -0.001040 0.926192 -0.255215 -0.277549
-0.053479 -0.040417 -0.003238 -0.931204 -0.334526 -0.144748
0.023851 0.096209 0.000257 -0.143143 0.019563 -0.989509
0.031541 -0.030985 0.000358 0.996076 0.040135 -0.078884
-0.014076 -0.026104 -0.005385 0.257936 -0.103238 -0.960630
-0.017374 -0.013880 -0.004197 -0.642491 -0.209744 -0.737029
-0.017679 -0.021565 0.003377 -0.529632 -0.037892 0.847381
-0.020872 -0.010053 -0.003208 -0.481242 -0.482145 -0.732081
-0.015898 -0.005698 -0.006755 0.083428 -0.018064 -0.996350
-0.004281 -0.040629 -0.006200 0.352533 -0.019778 -0.935590
-0.029512 -0.039715 0.000448 -0.479144 0.824686 0.300524
0.015596 0.020943 -0.005866 0.357232 -0.088138 -0.929848
-0.009232 -0.052679 0.003134 -0.921500 -0.037892 0.386526
0.021685 0.040592 -0.000549 0.994829 -0.040324 0.093212
-0.020799 -0.039710 -0.005099 0.160463 -0.114277 -0.980404
-0.043125 -0.004278 -0.001084 -0.674107 0.738632 0.001692
0.026569 -0.012087 0.001930 0.906645 0.416452 0.067546
0.013775 0.007603 -0.005857 0.206984 0.081533 -0.974941
0.008810 0.025222 0.007462 -0.092022 -0.008395 0.995722
0.016080 0.014834 0.005977 0.409027 -0.015583 0.912389
0.026154 0.063117 0.000342 0.497449 0.001605 0.867492
-0.049640 -0.030745 -0.004487 0.788804 0.042320 -0.613186
0.015382 -0.069798 -0.000279 0.535224 -0.841475 -0.073860
0.011016 0.046639 -0.001863 -0.098941 0.367819 -0.924619
0.003410 0.037655 0.003501 -0.961218 0.204719 0.184797
0.025832 -0.031745 -0.000891 -0.998579 -0.022866 -0.048141
-0.007440 -0.006269 0.001312 0.551622 -0.833875 -0.019139
0.016500 0.051349 0.002697 -0.023382 -0.000029 0.999727
-0.039191 -0.006350 0.006107 0.153735 -0.255124 0.954609
-0.006296 -0.064784 0.002252 -0.849838 -0.508829 0.137360
0.033785 0.091131 0.000475 0.090767 0.000494 0.995872
0.024900 -0.023659 0.000308 -0.976943 -0.213427 0.005513
0.027088 0.084757 -0.001972 0.013857 -0.001405 -0.999903
0.021948 0.087217 0.002654 -0.016134 0.012730 0.999789
-0.010809 -0.045071 -0.000473 -0.937981 0.019282 0.346151
-0.008092 -0.006928 -0.001612 0.758730 -0.641537 -0.112957
0.020742 -0.009713 -0.005186 -0.542814 -0.389015 -0.744326
0.037851 0.105657 -0.001530 0.704727 -0.111769 -0.700620
0.006176 -0.009429 0.007477 0.335812 -0.190627 0.922438
0.025578 -0.047118 -0.005341 -0.422165 0.128159 -0.897414
0.017795 -0.008432 0.005099 -0.448071 -0.691100 0.567110
-0.037500 -0.000637 -0.005520 -0.557043 0.787088 -0.264944
0.018572 0.010148 -0.001591 0.985593 0.093483 -0.140950
0.030654 0.084025 -0.001924 0.006269 -0.002114 -0.999978
-0.012518 -0.023211 0.005100 -0.109600 -0.041902 0.993092
0.024077 -0.045419 0.001073 -0.946723 0.285142 0.149699
-0.020249 -0.003838 -0.006780 -0.172687 -0.284596 -0.942966
-0.000654 -0.021125 0.007111 -0.334291 0.085851 0.938552
-0.004874 -0.009514 -0.000929 -0.934397 -0.156388 0.320072
0.026509 0.075415 0.002822 0.338587 -0.077451 0.937742
0.025599 -0.026441 0.002266 -0.965047 -0.156106 0.210511
-0.050403 -0.039199 -0.006553 0.265500 0.077897 -0.960959
0.033504 0.100180 0.000649 0.479633 -0.107031 0.870917
0.018848 0.008633 0.000030 0.991127 0.126496 0.040810
0.032519 0.104940 -0.001865 -0.017340 0.022104 -0.999605
-0.044797 -0.012414 -0.006811 0.366861 -0.321422 -0.872984
0.025444 0.053982 -0.001947 0.552173 -0.139568 -0.821965
0.031315 0.122227 0.002517 -0.527056 0.117500 0.841669
0.000616 -0.061675 -0.000173 0.867905 0.494705 -0.044807
-0.048715 -0.010717 -0.001389 -0.825966 0.563716 -0.002189
0.008052 0.044417 0.004210 -0.449303 0.844220 0.292266
0.014503 0.045408 0.004623 0.191139 0.937303 0.291427
-0.009373 -0.046357 0.002857 -0.876636 0.046687 0.478884
0.026053 -0.022359 -0.005287 -0.643234 -0.163944 -0.747912
-0.003923 -0.032498 0.006583 -0.497721 0.111270 0.860170
-0.009721 -0.025874 0.000914 0.576789 -0.102471 0.810441
0.006392 -0.065735 0.001522 0.186885 0.966427 0.176331
0.013478 0.065735 0.000982 -0.824438 0.277434 -0.493288
0.025605 -0.010981 -0.003784 0.898032 0.393042 -0.197628
0.019723 0.003888 0.000356 0.962758 0.263687 0.059712
0.016893 -0.000760 0.006889 0.171119 0.096734 0.980490
-0.022596 -0.011892 0.002462 -0.613162 -0.678911 0.403870
-0.022853 -0.042399 -0.005101 0.157318 -0.167628 -0.973217
-0.010519 -0.033524 -0.001039 -0.870555 0.064144 0.487872
-0.014121 -0.002868 -0.006457 0.140084 0.030142 -0.989681
0.023476 -0.060852 -0.002589 0.842897 -0.522900 -0.126891
-0.004834 -0.021796 -0.006604 -0.007523 0.029801 -0.999528
-0.045035 -0.019704 0.000199 0.851473 -0.524082 -0.018232
0.001100 -0.065208 0.005037 0.447309 0.524273 0.724606
0.022464 0.036212 -0.000230 0.998028 -0.038396 0.049653
0.006543 0.010006 -0.007168 0.005082 0.011275 -0.999924
0.027029 0.058241 -0.000799 0.968349 -0.242857 -0.057625
0.027509 -0.047946 0.005561 -0.088677 0.022040 0.995817
-0.011026 -0.024704 0.004990 0.560110 -0.170806 0.810618
0.021948 0.087217 0.002654 -0.016134 0.012730 0.999789
-0.052471 -0.028685 -0.006834 0.160660 0.011201 -0.986946
0.022181 0.035290 0.002297 0.985563 -0.125460 0.113692
0.002629 0.034411 0.002882 -0.970216 0.215309 0.111010
0.012697 0.032465 0.005430 -0.058067 -0.051003 0.997009
0.016523 0.037440 0.005522 -0.375045 -0.262167 0.889163
0.010134 0.031080 0.005200 0.185615 0.363645 0.912858
0.016578 0.069423 0.000314 -0.591024 0.246178 -0.768171
0.003225 0.028351 0.005799 -0.452102 0.090793 0.887334
0.021438 -0.057001 -0.005533 -0.404794 0.264370 -0.875357
-0.031388 -0.008832 -0.001370 0.158699 -0.860756 -0.483646
0.012595 0.045386 -0.004691 0.007854 0.960437 -0.278387
0.025929 -0.044892 -0.005162 -0.512205 0.150348 -0.845601
0.024353 0.101668 0.000870 -0.827097 0.283792 -0.485152
-0.011928 -0.030206 0.002932 0.963727 -0.266772 -0.007902
0.006007 -0.027451 0.000437 0.957576 -0.129111 -0.257640
0.022946 0.049544 0.000498 0.638236 -0.060404 0.767467
0.000854 -0.013310 0.007213 -0.351607 0.022172 0.935885
0.030695 -0.038275 -0.003947 0.927952 -0.143830 -0.343828
-0.044201 -0.007413 0.006183 -0.351483 0.282400 0.892586
0.012266 0.053988 0.002598 -0.020413 -0.002274 0.999789
0.005143 -0.017842 0.006431 0.641232 -0.130426 0.756182
0.024194 0.076620 -0.001986 0.007584 0.001504 -0.999970
-0.032838 -0.046767 0.003373 -0.069880 0.212111 0.974744
-0.052452 -0.020109 -0.006582 -0.642214 0.194751 -0.741372
0.036398 0.097866 -0.001616 0.730712 -0.154441 -0.664987
0.029153 0.088906 0.002763 0.296559 -0.077544 0.951861
0.000033 -0.065268 0.005713 0.438856 0.398733 0.805243
0.035964 0.119778 0.002392 0.527428 -0.091349 0.844674
0.026745 -0.028978 -0.004803 -0.744603 -0.060217 -0.664786
0.030751 0.120831 0.002512 -0.698401 0.035981 0.714801
0.002659 -0.063976 0.000436 0.612902 0.790099 0.009775
0.022952 -0.062031 -0.000664 0.828850 -0.552765 -0.086361
-0.038849 -0.052168 0.003949 -0.006434 -0.559575 0.828754
-0.008470 -0.007474 -0.000086 0.847685 -0.526483 -0.065161
-0.018320 -0.003999 -0.006965 -0.010719 -0.061396 -0.998056
0.002200 0.011307 0.006588 -0.284083 0.050328 0.957478
0.014982 0.046396 -0.001886 0.102380 0.408953 -0.906794
-0.020423 0.001852 0.006258 0.026746 0.060113 0.997833
0.026791 -0.055532 0.002354 0.905176 -0.425036 -0.000122
0.025665 -0.027600 0.001727 -0.975150 -0.131418 0.178361
0.031406 -0.033166 -0.001163 0.993652 -0.006454 -0.112316
0.029663 -0.034037 -0.005426 0.262273 0.016391 -0.964854
0.016735 -0.062160 0.003540 -0.595580 0.523479 0.609306
0.027430 0.109826 0.002590 -0.392948 0.076852 0.916344
0.022407 0.052738 0.002674 0.463497 -0.121206 0.877770
0.009930 -0.066079 0.002844 -0.204339 0.878595 0.431643
-0.032323 -0.044709 0.002918 -0.094040 0.292497 0.951631
0.001122 -0.036751 -0.003812 0.587102 -0.111766 -0.801760
0.034951 0.093349 -0.001814 0.450344 -0.084912 -0.888808
-0.010384 -0.040133 -0.000012 -0.909320 0.066985 0.410671
-0.050139 -0.034454 -0.005566 0.661234 0.141703 -0.736675
-0.002476 -0.040198 -0.005489 0.414904 -0.054993 -0.908202
-0.006542 -0.005828 -0.000493 -0.023009 -0.994936 -0.097844
0.026701 0.077543 -0.001964 -0.004341 0.007300 -0.999964
0.020166 0.072848 -0.002010 -0.127111 -0.049631 -0.990646
-0.013397 0.008233 0.005558 0.000894 0.086777 0.996227
0.019272 0.003517 -0.004487 0.778781 0.237962 -0.580409
0.002312 0.030429 0.004945 -0.758617 0.190143 0.623174
0.007551 0.021041 -0.007081 -0.078453 0.017214 -0.996769
0.021517 -0.004466 0.006268 0.413899 0.225202 0.882027
-0.000422 0.006218 -0.006296 -0.313695 0.090607 -0.945191
-0.032985 -0.005737 0.005238 0.092890 -0.371643 0.923717
0.018245 0.020424 -0.001462 0.880837 -0.471171 -0.046074
-0.016686 -0.033676 0.004484 -0.268258 0.100138 0.958128
-0.010173 -0.053243 -0.007033 -0.702197 -0.107491 -0.703822
-0.040736 -0.004482 -0.007325 -0.360823 0.356380 -0.861858
0.040391 0.120637 -0.000675 0.944067 -0.111756 -0.310238
0.030856 -0.030483 0.005730 0.519733 -0.057579 0.852386
-0.005528 0.019961 -0.000258 -0.729143 0.684241 -0.012832
-0.015644 -0.009363 -0.006552 -0.162921 -0.159550 -0.973653
0.025481 0.105456 0.001465 -0.961384 0.266812 -0.067473
0.003983 0.018009 -0.006663 -0.221435 0.053580 -0.973702
0.031677 0.085044 0.000427 0.058371 -0.047710 0.997154
-0.009315 -0.038338 0.001706 -0.856314 0.101094 0.506464
0.010866 0.015449 -0.006839 0.176862 -0.037755 -0.983511
-0.002055 -0.058163 0.004968 0.760687 0.045559 0.647518
0.011006 0.043587 0.007612 -0.192487 0.366841 0.910152
-0.018315 -0.040708 -0.002422 0.736491 -0.519755 -0.432939
0.024655 -0.008901 0.005500 0.804677 0.429158 0.410267
0.029254 -0.030268 0.005938 -0.132299 -0.068756 0.988822
0.018601 0.083049 0.002120 -0.877197 0.276914 0.392231
-0.039344 -0.041713 -0.002206 0.190738 0.763364 -0.617166
0.004125 0.039254 0.004636 -0.851245 0.276201 0.446201
-0.009658 -0.035421 0.000438 -0.875059 0.068660 0.479122
0.005011 0.042224 0.002345 -0.787337 0.605253 0.117342
-0.008512 0.015984 0.004967 -0.335330 0.394050 0.855733
-0.019972 -0.040733 -0.004561 0.514500 -0.391076 -0.763118
0.030940 -0.027890 -0.002604 0.979244 0.103422 -0.174313
0.031298 0.093958 -0.001924 0.008471 0.007222 -0.999938
0.027265 0.108473 0.002669 -0.291766 0.143979 0.945591
0.013174 0.016462 0.006940 0.223112 -0.031209 0.974293
-0.008828 -0.054748 0.003825 -0.926440 -0.070597 0.369764
-0.002755 -0.005589 0.006190 -0.318465 0.029678 0.947470
-0.002755 -0.005589 0.006190 -0.318465 0.029678 0.947470
0.012819 0.045369 0.005338 0.009937 0.948563 0.316433
-0.016008 -0.013970 -0.005319 -0.550237 -0.162570 -0.819030
0.004439 -0.003126 -0.007147 -0.065352 0.018063 -0.997699
0.012118 0.041037 -0.006618 0.007354 -0.447703 -0.894152
0.008576 -0.011455 0.004030 0.820157 -0.448744 0.354926
0.017726 -0.000052 -0.005730 0.230365 0.142690 -0.962586
0.001896 0.000266 -0.005392 0.018194 -0.237830 -0.971136
-0.012122 0.013315 0.004984 -0.328556 0.462028 0.823761
-0.023174 -0.007784 0.004834 -0.163233 -0.313833 0.935341
0.010756 0.055137 0.000515 -0.806623 0.248234 -0.536413
-0.016808 -0.009107 -0.006141 -0.422134 -0.261818 -0.867902
-0.011548 -0.041120 -0.003424 -0.996944 0.024843 0.074070
0.026668 -0.019193 0.006380 -0.215178 -0.124836 0.968563
0.014154 0.020543 0.006892 0.237561 -0.054505 0.969842
0.005400 -0.031489 0.003909 0.931197 -0.149983 0.332231
-0.012644 -0.018907 0.005221 -0.159724 -0.039278 0.986380
0.031459 0.076261 -0.001808 0.599441 -0.180588 -0.779781
0.039637 0.128410 0.000238 0.411849 0.894368 0.174604
-0.047135 -0.039513 0.003410 0.431472 0.248572 0.867205
0.007808 0.041276 0.006812 -0.256886 -0.055549 0.964844
0.013077 0.019372 0.007084 0.202992 -0.043059 0.978233
0.012393 0.056591 -0.000598 -0.788271 0.269022 -0.553404
-0.027676 -0.041321 0.002654 -0.287531 0.362758 0.886415
0.034515 0.123006 0.002604 -0.010403 -0.011909 0.999875
0.029254 -0.030268 0.005938 -0.132299 -0.068756 0.988822
-0.036369 -0.006356 -0.006127 0.329880 -0.573347 -0.749969
-0.016268 0.008329 -0.005798 0.032782 0.104728 -0.993960
-0.008783 -0.008194 -0.000115 0.917123 -0.397281 -0.032456
0.002324 0.007461 -0.006891 -0.180701 0.059346 -0.981746
0.027122 0.110789 0.001861 -0.916166 0.327663 0.230818
0.014459 0.044151 0.007332 0.171186 0.694649 0.698683
0.022312 -0.052308 0.003176 -0.792405 0.331798 0.511864
0.020845 0.069924 -0.002015 0.019427 0.002129 -0.999809
-0.029865 -0.043884 0.003008 -0.171415 0.285662 0.942875
0.012472 -0.005776 -0.004542 0.131308 -0.701554 -0.700414
-0.008736 -0.021161 0.000357 0.338187 0.217418 0.915619
-0.019552 0.009747 -0.004558 -0.455990 0.853039 -0.253766
0.004068 -0.027506 -0.002737 0.692317 -0.100239 -0.714597
-0.048493 -0.020889 0.004490 0.584932 -0.251406 0.771135
0.021993 -0.002684 0.001765 0.906872 0.415446 0.070624
-0.004900 -0.011822 -0.000698 -0.895123 0.119138 0.429606
0.011068 -0.008792 0.003982 0.521542 -0.786599 0.330540
-0.005015 -0.050043 -0.006554 0.482016 0.034055 -0.875500
0.015563 0.070041 0.002664 -0.211207 0.060627 0.975559
-0.048497 -0.048342 0.004094 -0.480332 -0.593582 0.645710
-0.025533 -0.004637 -0.005187 -0.089544 -0.540443 -0.836602
0.007219 0.028209 0.007196 -0.209859 0.079074 0.974529
0.022407 0.052738 0.002674 0.463497 -0.121206 0.877770
0.019776 0.024970 -0.002729 0.960996 -0.216181 -0.172488
0.010985 0.017881 0.007338 0.097457 -0.025848 0.994904
-0.003904 -0.021381 -0.006511 0.162379 -0.014295 -0.986625
0.024058 -0.019734 0.002976 -0.926996 -0.304590 0.218870
-0.046712 -0.034409 0.000178 0.908773 0.376578 0.179782
0.023477 -0.048506 -0.002994 -0.901619 0.309603 -0.302042
0.003091 -0.065553 -0.005229 0.449633 0.787987 -0.420603
0.013963 -0.064632 -0.004710 -0.500730 0.745769 -0.439429
-0.010051 -0.040418 -0.006702 -0.436897 0.001320 -0.899511
-0.040563 -0.006791 0.006205 0.109336 -0.183430 0.976934
0.027925 0.109574 0.000211 -0.161406 0.088744 -0.982890
0.024260 0.101044 0.002410 -0.730936 0.223390 0.644849
0.016378 0.008298 -0.005139 0.276739 0.082725 -0.957378
0.005182 0.027126 -0.006390 -0.285556 0.062237 -0.956339
0.022144 0.090798 0.000248 -0.195543 0.042019 -0.979795
-0.009880 0.003832 -0.005659 0.124413 0.009608 -0.992184
0.001117 -0.023014 0.007413 -0.058187 -0.009519 0.998260
0.018059 0.073994 0.002648 -0.026821 0.001669 0.999639
0.037401 0.117434 0.000671 0.233411 -0.045062 0.971334
0.014706 0.010324 0.006506 0.272541 0.036173 0.961464
0.032510 0.113275 0.002686 0.024320 0.000711 0.999704
0.024789 0.060385 0.001567 0.811821 -0.155978 0.562688
-0.005297 -0.054807 0.006775 -0.003537 -0.036469 0.999329
-0.006517 -0.034698 -0.006878 0.103667 0.010838 -0.994553
0.003257 -0.041113 0.002026 0.960202 -0.278323 -0.023426
0.026634 0.064401 0.000311 0.347587 -0.134917 0.927890
-0.003777 -0.013476 0.001767 -0.828399 0.176870 0.531481
-0.014518 -0.021880 -0.005645 -0.198850 -0.032403 -0.979494
0.022893 -0.061504 -0.003563 0.822712 -0.540070 -0.177397
0.021471 -0.063457 0.005430 0.529932 -0.361287 0.767231
0.010953 -0.066519 0.003975 -0.264156 0.755357 0.599715
-0.005412 -0.066208 -0.000672 -0.737418 -0.671777 -0.070213
0.029524 0.086682 -0.001932 0.008369 0.000780 -0.999965
-0.000336 -0.031383 -0.005093 0.398946 -0.063318 -0.914786
0.004487 0.038146 0.005534 -0.630069 0.146949 0.762509
-0.047829 -0.028692 -0.000665 0.986131 -0.022124 -0.164486
0.022232 0.093788 0.002619 -0.587544 0.247782 0.770322
-0.032068 -0.044722 -0.004396 -0.096496 0.444267 -0.890683
-0.011439 -0.039055 -0.003384 -0.995154 0.068724 0.070329
0.022067 0.037865 -0.003292 0.967299 0.165439 -0.192257
0.034760 0.116032 0.002627 0.362690 -0.038375 0.931119
0.010285 -0.009628 0.001143 0.645996 -0.761606 -0.051425
0.027179 -0.030937 0.004675 -0.797159 -0.064013 0.600366
0.021883 0.041458 -0.001566 0.866566 -0.099781 -0.488986
0.021952 0.033647 -0.000661 0.965867 -0.253536 0.053113
0.007473 -0.015923 0.002152 0.982011 -0.185663 0.034405
0.007795 -0.072295 0.005149 0.044196 -0.956599 0.288037
0.030484 -0.023416 0.004157 0.966925 0.219163 0.130472
-0.015520 0.003761 -0.006226 0.074486 0.084827 -0.993608
0.017603 -0.067735 -0.003363 0.632771 -0.754920 -0.172325
0.025320 0.071858 0.002810 0.176707 -0.025621 0.983930
0.005442 -0.000246 0.007384 -0.040362 0.035461 0.998556
-0.006559 -0.056454 -0.007657 0.070265 0.033131 -0.996978
-0.037993 -0.049441 0.003804 0.034139 0.147533 0.988468
-0.012644 -0.018907 0.005221 -0.159724 -0.039278 0.986380
-0.010323 0.010597 -0.005422 0.034833 0.069618 -0.996965
-0.045684 -0.038139 0.001932 0.606914 0.442954 0.659884
0.002351 0.017771 0.006259 -0.348790 0.061925 0.935153
-0.006785 -0.063852 0.002224 -0.882246 -0.440028 0.167382
0.012444 -0.003642 -0.006219 0.049336 -0.497488 -0.866067
0.003813 -0.011449 -0.005079 0.397763 -0.259092 -0.880145
-0.042582 -0.005346 -0.006681 -0.525289 0.556511 -0.643714
0.007821 -0.003405 -0.007038 0.129516 -0.257463 -0.957569
-0.024218 -0.002784 -0.006457 -0.103089 -0.456759 -0.883597
-0.038826 -0.044284 0.002669 0.084096 0.354898 0.931115
-0.009286 -0.032391 -0.006476 -0.387793 0.057155 -0.919973
0.024925 -0.008627 -0.001239 0.901826 0.423143 -0.087516
0.015259 0.069369 0.002626 -0.324259 0.081023 0.942492
-0.046238 -0.041263 0.003508 0.347208 0.248460 0.904275
0.012393 0.056591 -0.000598 -0.788271 0.269022 -0.553404
-0.045197 -0.051170 0.001460 -0.452944 -0.889983 0.052647
0.000102 0.000606 0.006633 -0.253456 0.061887 0.965365
0.019801 -0.055482 0.000195 -0.877044 0.479680 0.026478
-0.009343 -0.013518 0.003747 0.987512 -0.010232 0.157211
0.006793 0.004888 0.007357 -0.029954 -0.000437 0.999551
0.012525 0.010093 0.007034 0.180389 0.012604 0.983515
0.017104 0.044182 0.005253 0.464956 0.820901 0.331569
0.021080 0.039340 -0.005433 0.777456 0.202000 -0.595616
-0.004042 -0.024509 0.004918 -0.717770 0.147910 0.680389
0.024456 -0.043816 0.000539 -0.968047 0.238912 0.076201
0.009365 -0.010606 0.000865 0.811382 -0.578551 -0.083302
-0.014027 0.012419 0.004803 -0.343504 0.613698 0.710901
-0.028582 -0.046525 0.003843 -0.145519 0.179949 0.972853
-0.015402 -0.010868 -0.006378 -0.251907 -0.151794 -0.955773
-0.013469 -0.034538 0.003885 0.862537 -0.425737 0.273454
0.008743 -0.011800 0.002075 0.904078 -0.427357 0.003136
0.004091 0.039713 0.000174 -0.953833 0.299413 0.023531
0.026141 -0.024207 -0.004933 -0.736754 -0.134558 -0.662636
-0.005437 0.005734 0.005027 0.252918 -0.030311 0.967013
0.024217 0.078197 -0.001969 0.011874 -0.007636 -0.999900
-0.047740 -0.011687 -0.006913 -0.446807 0.418746 -0.790579
-0.004230 -0.047955 -0.006070 0.488149 0.001169 -0.872759
0.017608 0.005473 0.005964 0.462144 0.170588 0.870243
0.012086 0.060114 0.002466 -0.666876 0.123032 0.734942
-0.000337 -0.054002 0.000982 0.992100 -0.125060 0.009869
-0.009434 -0.011945 0.002330 0.997768 -0.023702 -0.062424
0.027430 0.109826 0.002590 -0.392948 0.076852 0.916344
0.025992 -0.043443 0.004205 -0.761778 0.165923 0.626230
-0.015441 -0.026450 0.004332 -0.326436 0.020874 0.944989
0.010028 0.035572 -0.006957 -0.343735 0.026737 -0.938686
0.022263 0.048776 -0.001887 -0.022141 0.012259 -0.999680
-0.006976 -0.037909 -0.006986 0.087489 -0.001606 -0.996164
-0.017289 -0.033118 -0.005207 0.024035 -0.020020 -0.999511
0.025552 0.099364 0.000281 -0.076090 0.005624 -0.997085
-0.032472 -0.048591 0.003775 -0.072173 0.167673 0.983197
0.029140 0.078703 -0.001935 0.005799 0.000236 -0.999983
0.030695 -0.038275 -0.003947 0.927952 -0.143830 -0.343828
0.014426 0.022182 -0.006363 0.283549 -0.072383 -0.956222
-0.049285 -0.033316 0.003445 0.658157 0.088642 0.747644
0.026436 0.087386 -0.001974 -0.013339 0.006675 -0.999889
-0.037244 -0.046183 0.003133 0.033067 0.239756 0.970270
0.000778 0.008570 -0.006471 -0.261608 0.068482 -0.962742
0.018162 0.051134 -0.001948 0.003526 -0.008253 -0.999960
0.031530 0.117616 0.002624 -0.024462 0.009390 0.999657
-0.032472 -0.048591 0.003775 -0.072173 0.167673 0.983197
0.021682 -0.006984 -0.005839 0.160565 0.069961 -0.984543
-0.043701 -0.016532 0.002796 0.612140 -0.539396 0.578218
0.017261 0.055221 0.002708 -0.032394 0.008068 0.999443
0.033840 0.096214 0.000440 0.118053 -0.058832 0.991263
-0.010600 -0.016777 -0.003616 0.922701 -0.079728 -0.377182
0.002324 0.007461 -0.006891 -0.180701 0.059346 -0.981746
-0.018154 -0.006448 -0.006450 -0.322728 -0.326832 -0.888272
-0.021437 -0.038527 0.003817 -0.280957 0.197140 0.939254
-0.005661 -0.051620 -0.007007 0.399330 0.064500 -0.914536
-0.003164 -0.007836 0.005146 -0.694966 -0.539836 0.474972
0.019225 0.031588 0.006210 0.332984 -0.065460 0.940657
-0.000071 0.018108 -0.005233 -0.358711 0.090416 -0.929059
-0.009301 -0.008224 0.005356 0.520790 -0.187080 0.832934
-0.009161 -0.056226 0.002548 -0.944055 -0.140521 0.298351
-0.046660 -0.013489 0.005830 0.228398 -0.202995 0.952170
0.008004 0.019819 0.007413 -0.061646 0.002441 0.998095
0.000227 0.027756 -0.001877 -0.880480 0.452437 -0.141619
-0.029753 0.003640 0.006099 -0.220836 0.577728 0.785787
-0.010264 -0.024832 0.001309 0.772722 -0.168634 0.611934
-0.048858 -0.031161 -0.003487 0.824302 0.090839 -0.558816
-0.050267 -0.028815 0.004273 0.638000 -0.064329 0.767344
0.025788 -0.014050 -0.005719 0.431080 0.170797 -0.886002
-0.009700 -0.014851 0.005137 0.700920 -0.002690 0.713235
0.010700 0.037574 0.005190 0.005781 -0.023555 0.999706
0.036544 0.124443 0.000302 -0.423826 0.159709 -0.891552
-0.038569 -0.001466 0.005844 -0.502124 0.623126 0.599654
-0.037702 -0.048893 -0.005910 0.055852 0.030440 -0.997975
0.032195 0.109135 0.002710 0.016765 0.008678 0.999822
-0.015379 -0.024711 0.004328 -0.330657 0.009779 0.943700
0.012589 0.046537 -0.001933 -0.000501 0.454123 -0.890939
-0.032187 -0.041393 0.001203 -0.272348 0.747215 0.606214
0.023906 -0.018426 -0.003393 -0.905204 -0.311829 -0.288736
-0.043576 -0.005141 0.003508 -0.690652 0.712488 0.123937
0.022586 -0.005241 -0.005194 0.687078 0.335976 -0.644239
0.033250 0.102271 0.001474 0.738326 -0.072720 0.670513
-0.044919 -0.010346 -0.007274 -0.006298 -0.045920 -0.998925
-0.010930 -0.036147 -0.005968 -0.809783 0.064181 -0.583209
0.016500 0.051349 0.002697 -0.023382 -0.000029 0.999727
-0.008808 0.011517 -0.005309 0.035633 0.060912 -0.997507
-0.022273 0.007019 -0.006169 -0.126587 0.394587 -0.910097
-0.011028 0.003624 0.005718 0.074013 0.030223 0.996799
0.028540 0.067454 -0.001946 0.227312 -0.092799 -0.969390
-0.039387 -0.049045 0.003828 0.069253 0.146007 0.986857
-0.018166 -0.037906 -0.004696 0.519540 -0.330993 -0.787732
-0.052653 -0.042801 0.002887 -0.907419 -0.396821 0.138290
-0.019706 -0.011969 -0.002918 -0.597614 -0.389942 -0.700573
0.001642 -0.071379 0.001200 -0.385122 -0.922498 -0.026033
0.015114 -0.062370 0.001402 -0.689456 0.682436 0.242760
-0.009942 -0.012286 -0.002203 0.983159 -0.028334 -0.180543
-0.031596 -0.051155 -0.002714 0.289443 -0.870350 -0.398388
0.033871 0.091030 -0.001911 0.156435 0.010703 -0.987630
0.019436 0.062174 -0.002029 0.012478 -0.002299 -0.999920
-0.015150 -0.029960 0.004605 -0.269623 0.054692 0.961412
-0.001029 0.024436 -0.004222 -0.644877 0.410620 -0.644612
0.007286 0.006495 0.007376 -0.025993 -0.004398 0.999652
-0.029753 0.003640 0.006099 -0.220836 0.577728 0.785787
0.020342 -0.060838 -0.006043 -0.079151 0.122845 -0.989265
0.000324 -0.005316 -0.006671 -0.196567 0.076563 -0.977497
-0.004230 -0.047955 -0.006070 0.488149 0.001169 -0.872759
0.003151 0.036438 -0.002818 -0.958005 0.230382 -0.170735
0.009828 -0.066824 -0.005394 -0.144571 0.853336 -0.500916
-0.028101 -0.038754 -0.000384 -0.565614 0.817507 -0.108459
0.031371 -0.034648 -0.001120 0.992363 -0.035927 -0.118001
-0.036588 -0.044309 0.002569 0.016058 0.378585 0.925427
0.013847 0.055571 -0.002073 -0.142366 0.064542 -0.987708
0.006098 -0.028096 0.003384 0.967778 -0.139921 0.209351
-0.051457 -0.022727 -0.006906 0.129706 -0.052429 -0.990165
0.026692 -0.018508 -0.005787 0.040063 0.005305 -0.999183
-0.022439 -0.045120 -0.002962 0.616515 -0.628097 -0.474767
0.030125 -0.032882 0.005922 0.194848 0.037167 0.980129
0.030118 0.097220 -0.001907 0.009207 0.004100 -0.999949
0.017538 0.019026 -0.000678 0.945890 -0.194710 -0.259575
-0.031929 -0.040963 -0.001603 -0.254675 0.839006 -0.480843
-0.045727 -0.016171 -0.005115 0.626341 -0.443710 -0.640952
-0.047984 -0.009867 -0.002919 -0.797027 0.593976 -0.109275
-0.040909 -0.002575 0.001428 -0.628843 0.775432 0.057111
-0.005169 -0.001697 0.004325 -0.140181 0.049327 0.988896
0.009359 -0.008835 -0.002654 0.534470 -0.631582 -0.561646
-0.002445 -0.002492 -0.004894 0.293072 -0.660176 -0.691575
-0.050257 -0.013598 0.002420 -0.860393 0.502477 0.085089
0.016523 0.037440 0.005522 -0.375045 -0.262167 0.889163
0.038075 0.120799 0.000740 0.159166 -0.038827 0.986488
-0.009401 0.007513 -0.005529 0.079760 0.031336 -0.996321
0.004039 -0.009966 -0.005438 0.366257 -0.301766 -0.880223
-0.002578 -0.042710 -0.005395 0.456471 -0.055753 -0.887990
-0.037731 -0.041664 0.000591 0.074991 0.866070 0.494266
0.001133 0.013402 -0.006217 -0.306978 0.083310 -0.948063
0.000142 -0.039486 0.006683 0.394929 -0.113973 0.911615
0.030861 0.093086 0.002400 0.596316 -0.112021 0.794895
0.012429 0.061525 0.000633 -0.656285 0.187359 -0.730881
0.015959 -0.001218 -0.006265 0.176620 0.106765 -0.978472
-0.030366 -0.003870 0.005698 0.049539 -0.282169 0.958085
-0.011081 -0.025934 -0.003120 0.407240 -0.160305 -0.899143
0.005995 -0.024224 -0.000679 0.895746 -0.100665 -0.433019
-0.012913 -0.032924 0.001494 0.927499 -0.372453 0.032001
0.009341 0.016087 -0.007061 0.090384 -0.017730 -0.995749
-0.042449 -0.006665 -0.007282 -0.187091 0.183278 -0.965094
-0.013826 -0.022082 0.004817 -0.263926 -0.029859 0.964081
-0.008986 -0.024486 -0.005875 -0.701436 0.181235 -0.689305
0.014026 -0.066471 -0.006475 -0.044774 0.347097 -0.936760
0.000699 0.001803 0.006702 -0.244685 0.055059 0.968038
0.001417 0.015688 -0.006121 -0.334274 0.084866 -0.938647
-0.024909 -0.038067 -0.002892 -0.530839 0.496509 -0.686795
-0.054661 -0.035864 -0.003060 -0.983294 -0.158298 -0.089855
-0.012935 0.013560 -0.004161 -0.483693 0.811342 -0.328275
0.037359 0.101496 -0.000233 0.957173 -0.136327 0.255412
0.027850 0.091134 0.002744 -0.029110 0.008540 0.999540
0.012921 0.000127 0.007290 0.062730 0.045505 0.996993
-0.026394 0.006242 0.003527 -0.466526 0.873717 0.137740
-0.004970 0.009524 0.005021 0.150076 -0.011938 0.988602
0.001340 -0.063374 0.002915 0.706266 0.606953 0.364413
-0.008202 -0.036342 0.002928 -0.801654 0.127259 0.584086
-0.036402 -0.044159 -0.003922 0.036493 0.528418 -0.848200
0.020662 0.028506 -0.001034 0.977033 -0.207792 0.047218
-0.039655 -0.012690 0.002768 0.533062 -0.643367 0.549477
0.020101 0.040863 -0.005907 0.687910 0.337011 -0.642809
-0.015519 0.011341 0.005045 -0.289642 0.554861 0.779896
-0.031438 -0.040463 -0.000577 -0.314681 0.943925 -0.099904
0.004185 -0.072136 0.003944 -0.249019 -0.963192 0.101243
0.006561 -0.024703 0.001849 0.994015 -0.099065 -0.046052
0.020021 0.025472 0.000066 0.981657 -0.175397 -0.074741
0.004414 -0.006211 -0.006719 0.216116 -0.311034 -0.925501
-0.008582 -0.057343 0.003732 -0.932235 -0.174210 0.317158
0.003027 0.036683 0.002402 -0.981148 0.193226 0.003585
0.019897 0.082314 0.000350 -0.251927 0.070154 -0.965200
-0.002154 -0.018728 0.005644 -0.717157 0.157529 0.678874
-0.010258 0.006745 -0.005621 0.080771 0.039121 -0.995965
-0.035220 -0.006439 -0.005548 0.315105 -0.609699 -0.727308
0.032156 0.114502 0.002647 -0.020966 0.013476 0.999689
-0.006001 -0.043394 -0.006835 0.292683 0.013538 -0.956114
0.024312 -0.049574 0.004362 -0.663491 0.233985 0.710655
-0.006891 -0.047946 -0.007265 0.205535 0.031806 -0.978133
-0.043671 -0.040252 0.001792 0.513355 0.544503 0.663312
0.005049 0.012404 0.007172 -0.152205 0.019644 0.988154
-0.021801 -0.001130 -0.007072 0.023149 0.002375 -0.999729
0.019706 0.023680 -0.000769 0.963218 -0.263788 -0.051256
0.033001 0.102611 -0.001847 0.019312 0.000603 -0.999813
-0.011188 -0.030263 0.000302 0.563313 -0.584651 0.583835
0.021840 0.038613 0.003171 0.948851 0.224925 0.221562
-0.003528 -0.062612 -0.007751 0.153545 0.112803 -0.981682
-0.023264 -0.003908 -0.005961 -0.177366 -0.484796 -0.856454
-0.041409 -0.004729 0.006337 -0.307131 0.289754 0.906484
-0.006705 -0.029869 0.003219 -0.748399 0.164513 0.642521
-0.006761 -0.063679 -0.004722 -0.826935 -0.545048 -0.138208
0.005815 0.030283 0.006719 -0.231421 0.088500 0.968820
0.018882 0.050502 0.002743 -0.025266 -0.002991 0.999676
0.029864 0.116659 0.002654 -0.151818 0.102419 0.983088
0.026146 0.105438 0.002639 -0.430049 0.123227 0.894356
-0.010223 0.001740 0.005701 0.096687 0.008876 0.995275
0.027112 -0.052512 -0.004748 0.797356 -0.275528 -0.536943
-0.022853 -0.042399 -0.005101 0.157318 -0.167628 -0.973217
-0.033780 -0.010026 0.000419 0.299595 -0.940379 -0.161031
0.019415 0.023403 0.004089 0.911115 -0.189800 0.365848
0.006302 0.005524 -0.006927 0.480510 -0.460787 -0.746181
-0.008395 -0.023561 0.000132 0.043368 0.112755 0.992676
0.034019 0.125362 0.000320 -0.418527 0.398317 -0.816197
0.000652 -0.028954 0.007355 0.086152 -0.012929 0.996198
-0.039656 -0.013478 0.000460 0.649238 -0.758375 -0.057942
-0.048456 -0.034152 0.002841 0.674320 0.149279 0.723193
